ncols        135
nrows        45
xllcorner    22597.5
yllcorner    190362.5
cellsize     100.000000000000
NODATA_value  -9999
2531.220947265625 2529 2467.7890625 2417.470947265625 2393.10009765625 2354.2919921875 2289.430908203125 2222.27001953125 2206.840087890625 2232.301025390625 2264.5810546875 2310.52099609375 2420.2509765625 2493.029052734375 2556.8798828125 2608.259033203125 2661.010986328125 2716.030029296875 2769.5791015625 2834.39990234375 2905.2900390625 2998.0400390625 3107.37109375 3044.718994140625 3058.2509765625 3076.968994140625 3189.361083984375 3266.5 3268.1708984375 3204.048095703125 3157.698974609375 3121.81005859375 3061.64794921875 3031.698974609375 3007.05908203125 2943.39990234375 2911.81103515625 2887.580078125 2859.360107421875 2839.791015625 2824.48095703125 2804.199951171875 2791.069091796875 2782.9990234375 2790.778076171875 2782.4208984375 2755.39111328125 2733.1689453125 2700.051025390625 2644.660888671875 2626.81103515625 2572.8701171875 2561.631103515625 2549.291015625 2578.468994140625 2598.802001953125 2619.200927734375 2618.388916015625 2658.23095703125 2640.197998046875 2627.3701171875 2606.6708984375 2571.071044921875 2532.489990234375 2488.1689453125 2437.8701171875 2411.868896484375 2404.65087890625 2387.669921875 2368.580078125 2346.25 2319.010009765625 2288.1201171875 2246.339111328125 2198.47998046875 2173.62109375 2154.881103515625 2107.93994140625 2094.301025390625 2037.5889892578125 1938.9100341796875 1916.468994140625 1922.5889892578125 1954.220947265625 1988.571044921875 2061.801025390625 2129.27099609375 2221.27099609375 2303.1201171875 2388.291015625 2407.590087890625 2467.76904296875 2464.968994140625 2504.87890625 2556.56005859375 2589.5009765625 2643.678955078125 2671.35009765625 2682.759033203125 2679.7900390625 2727.708984375 2849.6201171875 2963.989990234375 3003.59912109375 3040.7490234375 3071.81103515625 3087.697998046875 3071.138916015625 3052.3310546875 3091.678955078125 3202.14794921875 3206.947998046875 3158.4208984375 3082.781005859375 3005.030029296875 2968.091064453125 2946.819091796875 2929.928955078125 2934.361083984375 2938.860107421875 2933.8291015625 2958.680908203125 2997.318115234375 3027.291015625 3021.51904296875 2982.989990234375 2956.409912109375 2942.06103515625 2930.35888671875 2910.178955078125 2907.888916015625 2928.948974609375 2930.89990234375 2944.010986328125 2967.580078125
2620.76904296875 2565.070068359375 2504.02099609375 2439.950927734375 2408.27099609375 2355.531005859375 2289.14990234375 2221.6220703125 2215.550048828125 2245.89111328125 2285.60009765625 2334.330078125 2388.112060546875 2462.009033203125 2517.160888671875 2577.9599609375 2636.77099609375 2699.360107421875 2769.77001953125 2865.0791015625 2930.7509765625 3019.839111328125 3096.64990234375 3127.361083984375 3164.5 3131.35107421875 3202.821044921875 3191.080078125 3175.7490234375 3141.361083984375 3128.030029296875 3115.989013671875 3110.02099609375 3058.85009765625 3053.779052734375 3002.949951171875 2978.700927734375 2932.44189453125 2881.51904296875 2852.26904296875 2830.3310546875 2813.830078125 2787.551025390625 2767.2109375 2764.201904296875 2766.090087890625 2747.56005859375 2711.18994140625 2683.657958984375 2645.989990234375 2615.8310546875 2578.05908203125 2561.59912109375 2548.070068359375 2560.9189453125 2572.930908203125 2595.281005859375 2597.819091796875 2590.260009765625 2584.01904296875 2578.2509765625 2564.9189453125 2544.070068359375 2509.60888671875 2458.26904296875 2417.450927734375 2397.569091796875 2374.2509765625 2355.6689453125 2326.589111328125 2294.180908203125 2262.22900390625 2241.281005859375 2219.43896484375 2174.179931640625 2154.010009765625 2122.3701171875 2088.449951171875 2034.8499755859375 1983.5689697265625 1921.5810546875 1917.9100341796875 1925.1099853515625 1953.4310302734375 2032.3800048828125 2098.550048828125 2151.05908203125 2214.178955078125 2315.52001953125 2398.81005859375 2449.330078125 2503.75 2539.09912109375 2556.27001953125 2602.299072265625 2672.06005859375 2757.029052734375 2783.3291015625 2758.409912109375 2736.138916015625 2754.37890625 2814.35888671875 2891.820068359375 3013.659912109375 3131.739990234375 3149.14794921875 3169.281005859375 3162.9599609375 3169.39111328125 3180.240966796875 3271.947998046875 3246.72900390625 3165.700927734375 3095.469970703125 3038.760009765625 3012.25 2988.179931640625 2970.48095703125 2986.361083984375 2985.278076171875 2991.041015625 3049.610107421875 3084.970947265625 3069.06005859375 3045.801025390625 2997.280029296875 2968.0009765625 2960.299072265625 2955.301025390625 2956.37109375 2961.680908203125 2983 2968.031005859375 3001.550048828125 3058.0009765625
2544.19091796875 2517.69091796875 2481.927978515625 2442.48095703125 2411.09912109375 2354.56005859375 2284.009033203125 2221.89990234375 2214.860107421875 2239.529052734375 2271.159912109375 2329.27099609375 2414.77099609375 2489.64892578125 2541.60888671875 2602.760009765625 2666.5009765625 2761.820068359375 2797.179931640625 2869.5400390625 2960.458984375 3003.779052734375 3042.19091796875 3043.970947265625 3110.25 3210.198974609375 3138.219970703125 3102.469970703125 3095.658935546875 3079.718994140625 3052.81005859375 3024.1298828125 3017.330078125 3055.339111328125 3037.430908203125 3040.8798828125 3047.819091796875 3002.658935546875 2960.429931640625 2896.1201171875 2858.301025390625 2819.2890625 2786.239990234375 2765.070068359375 2745.75 2733.739990234375 2726.240966796875 2711.830078125 2689.618896484375 2666.388916015625 2630.139892578125 2604.958984375 2561.131103515625 2548.240966796875 2551.450927734375 2558.381103515625 2572.2099609375 2573.02099609375 2579.43994140625 2563.1279296875 2533.44091796875 2530.9990234375 2506.62890625 2465.319091796875 2420.070068359375 2393.81005859375 2359.5791015625 2321.1298828125 2293.430908203125 2268.360107421875 2250.928955078125 2226.947998046875 2205.208984375 2197.199951171875 2151.320068359375 2126.31005859375 2143.178955078125 2135.64111328125 2060.2900390625 1972.990966796875 1922.469970703125 1922.780029296875 1935.198974609375 1967.9090576171875 2020.8289794921875 2105.64990234375 2161.551025390625 2234.449951171875 2319.62109375 2395.81005859375 2457.12890625 2545.1298828125 2614.158935546875 2661.02001953125 2690.580078125 2712.85888671875 2824.59912109375 2839.428955078125 2839.510009765625 2791.6689453125 2789.64990234375 2825.881103515625 2932.7900390625 2994.8779296875 3112.841064453125 3118.5810546875 3172.259033203125 3192.2109375 3250.3291015625 3195.580078125 3172.47998046875 3165.239990234375 3198.361083984375 3153.8720703125 3126.091064453125 3106.781005859375 3108.580078125 3079.820068359375 3039.43798828125 3040.281005859375 3055.9609375 3134.030029296875 3126.81005859375 3102.75 3072.760009765625 3024.031005859375 2986.62109375 2982.26904296875 2989.791015625 2995.91796875 3040.198974609375 3023.679931640625 3037.908935546875 3102.260986328125 3128.669921875
2521.27001953125 2490.22998046875 2462.779052734375 2440.969970703125 2400.68896484375 2343.87109375 2273.550048828125 2223.180908203125 2213.739013671875 2232.169921875 2272.427978515625 2343.341064453125 2473.220947265625 2567.6201171875 2645.070068359375 2674.110107421875 2740.3310546875 2810.8310546875 2838.08203125 2870.888916015625 2893.589111328125 2942.39794921875 2995.85107421875 3004.239013671875 3062.139892578125 3164.35107421875 3098.4990234375 3087.0009765625 3067.60888671875 3046.458984375 3013.030029296875 2984.159912109375 2976.31103515625 3022.069091796875 3027.239990234375 3001.3310546875 3015.55908203125 3088.3291015625 3020.708984375 2958.10888671875 2914.049072265625 2861.638916015625 2821.029052734375 2770.510986328125 2740.510009765625 2724.34912109375 2723.321044921875 2713.62890625 2721.12109375 2700.659912109375 2673.6220703125 2637.361083984375 2585.157958984375 2543.429931640625 2545.458984375 2540.388916015625 2533.949951171875 2538.740966796875 2534.969970703125 2498.5009765625 2486.75 2474.110107421875 2440.80908203125 2424.639892578125 2381.830078125 2341.720947265625 2316.1298828125 2276.47998046875 2252.638916015625 2231.051025390625 2205.381103515625 2186.9990234375 2158.800048828125 2141.550048828125 2145.861083984375 2178.72998046875 2148.009033203125 2128.0400390625 2075.178955078125 1966.280029296875 1924.958984375 1928.5689697265625 1944.8599853515625 1983.458984375 2019.260009765625 2112.85009765625 2169.989990234375 2245.85107421875 2321.51904296875 2405.949951171875 2481.239013671875 2537.9599609375 2601.4609375 2663.4189453125 2713.06103515625 2766.091064453125 2815.490966796875 2864.14892578125 2900.40087890625 2844.760009765625 2875.139892578125 2898.569091796875 3053.927978515625 3058.169921875 3024.449951171875 3044.010986328125 3071.77099609375 3135.7509765625 3179.75 3127.489013671875 3121.68896484375 3110.291015625 3122.89892578125 3118.199951171875 3071.611083984375 3046.1298828125 3070.611083984375 3136.720947265625 3152.759033203125 3154.60009765625 3191.339111328125 3189.1689453125 3172.7099609375 3159.93798828125 3172.6708984375 3128.69091796875 3053.469970703125 3023.27099609375 3083.3798828125 3110.279052734375 3094 3075.7109375 3094.669921875 3169.9208984375 3204.2490234375
2509.450927734375 2472.118896484375 2451.7509765625 2425.0791015625 2399.800048828125 2350.680908203125 2277.930908203125 2220.35009765625 2218.7109375 2254.4189453125 2302.669921875 2362.1201171875 2430.301025390625 2514.550048828125 2608.3798828125 2707.112060546875 2787.339111328125 2839.280029296875 2842.779052734375 2804.679931640625 2841.510009765625 2912.949951171875 2940.72998046875 2980.862060546875 3020.18994140625 3139.7109375 3084.44091796875 3064.43994140625 3040.889892578125 3032.781982421875 3008.1279296875 2978.85009765625 2965.220947265625 2954.23095703125 2975.131103515625 2963 2948.201904296875 3024.02001953125 3047.178955078125 3002.9189453125 2952.8779296875 2906.2900390625 2854.050048828125 2805.5390625 2777.571044921875 2731.589111328125 2740.011962890625 2732.9580078125 2728.948974609375 2751.638916015625 2720.281005859375 2669.87109375 2609.868896484375 2565.47998046875 2535.2490234375 2516.7490234375 2522.35888671875 2490.820068359375 2478.381103515625 2431.7890625 2426.820068359375 2420.861083984375 2386.658935546875 2358.159912109375 2334.93798828125 2303.530029296875 2265.3798828125 2243.908935546875 2218.84912109375 2195.908935546875 2169.9609375 2160.660888671875 2145.680908203125 2159.3701171875 2169.800048828125 2168.909912109375 2143.60107421875 2115.62109375 2046.760986328125 1969.551025390625 1929.550048828125 1933.260986328125 1952.3800048828125 2029.219970703125 2044.1199951171875 2125.509033203125 2168.3291015625 2233.72998046875 2343.75 2437.84912109375 2483.510009765625 2509.300048828125 2566.571044921875 2625.81005859375 2663.4599609375 2703.449951171875 2768.950927734375 2843.60009765625 2901.360107421875 2933.698974609375 2959.2900390625 2976.760986328125 3035.25 2982.280029296875 2965.218994140625 2981 3006.862060546875 3080.64892578125 3132.26904296875 3101.610107421875 3089.0390625 3086.407958984375 3073.408935546875 3122.490966796875 3062.31201171875 3019.669921875 3023.6708984375 3065.05908203125 3145.8291015625 3206.3798828125 3277.39990234375 3270.3310546875 3245.27099609375 3241.541015625 3204.7900390625 3183.39892578125 3160.93896484375 3139.26904296875 3131.861083984375 3128.27001953125 3125.700927734375 3131.72900390625 3175.361083984375 3222.43896484375 3260.550048828125
2502.158935546875 2465.2900390625 2443.56201171875 2420.659912109375 2392.760986328125 2353.389892578125 2282.84912109375 2222.59912109375 2215.89892578125 2239.800048828125 2285.3701171875 2349.4599609375 2437.409912109375 2561.468994140625 2620.60888671875 2700.18994140625 2714.340087890625 2749.887939453125 2762.9189453125 2764.490966796875 2805.27099609375 2883.1298828125 2886.1689453125 2937.5 2982.720947265625 3085.39892578125 3056.10009765625 3029.87890625 3013.860107421875 2988.7919921875 2961.779052734375 2946.541015625 2944.3310546875 2908.300048828125 2942.14111328125 2950.080078125 2906.199951171875 2951.89892578125 2988.220947265625 3020.909912109375 2957.7490234375 2910.31005859375 2865.8701171875 2841.739013671875 2816.8291015625 2791.23095703125 2803.819091796875 2798.868896484375 2830.881103515625 2884.35107421875 2799.069091796875 2719.830078125 2648.091064453125 2592.72900390625 2542.458984375 2505.071044921875 2487.529052734375 2481.06103515625 2446.531005859375 2400.02001953125 2379.071044921875 2366.389892578125 2350.909912109375 2326.85107421875 2309.489990234375 2269.659912109375 2232.35888671875 2212.291015625 2190.708984375 2170.342041015625 2159.39892578125 2153.091064453125 2152.9599609375 2171.60888671875 2168.35888671875 2154.428955078125 2164.1689453125 2106.37109375 2040.240966796875 1977.9310302734375 1933 1943.780029296875 1954.3399658203125 2020.1009521484375 2058.4599609375 2124.639892578125 2184.26904296875 2262.199951171875 2346.719970703125 2401.948974609375 2448.010009765625 2478.77001953125 2532.071044921875 2560.739013671875 2617.19091796875 2660.090087890625 2726.02001953125 2783.8798828125 2839.718994140625 2885.549072265625 2959.14892578125 2992.111083984375 2977.09912109375 2928.35107421875 2913.781005859375 2924.208984375 2940.321044921875 3008.239013671875 3090.610107421875 3085.051025390625 3075.2509765625 3058.759033203125 3052.37109375 3058.80908203125 3093.341064453125 3017.97900390625 2998.498046875 3008.37890625 3078.8310546875 3154.09912109375 3206.489990234375 3322.87890625 3315.85009765625 3258.39111328125 3221.781005859375 3200.760009765625 3177.430908203125 3159.39111328125 3155.889892578125 3152.169921875 3156.861083984375 3209.23095703125 3282.970947265625 3314.208984375 3335.840087890625
2502.1708984375 2468.112060546875 2439.2890625 2410.220947265625 2384.93798828125 2355.3720703125 2282.97998046875 2227.388916015625 2219.4580078125 2223.009033203125 2267.489013671875 2353.87890625 2472.509033203125 2577.43896484375 2650.18896484375 2706.4599609375 2669.0419921875 2688.7509765625 2724.65087890625 2729.550048828125 2836.39111328125 2847.679931640625 2870.239990234375 2932.93994140625 2983.97998046875 3082.458984375 3035.458984375 3009.3701171875 2987.950927734375 2963.179931640625 2945.637939453125 2924.14990234375 2898.030029296875 2884.051025390625 2895.62890625 2883.97900390625 2885.570068359375 2900.409912109375 2920.2900390625 2970.01904296875 3006.091064453125 2967.791015625 2913.138916015625 2920.531982421875 2886.81201171875 2873.881103515625 2903.091064453125 2900.720947265625 2985.85107421875 2951.929931640625 2887.35205078125 2751.77001953125 2692.208984375 2618.639892578125 2567.72998046875 2528.138916015625 2501.85009765625 2455.2109375 2444.2890625 2386.887939453125 2371.841064453125 2353.5791015625 2335.549072265625 2322.64990234375 2287.968994140625 2251.449951171875 2241.68994140625 2203.888916015625 2171.989990234375 2164.591064453125 2161.780029296875 2162.87890625 2171.928955078125 2179.051025390625 2178.22998046875 2163.801025390625 2155.510009765625 2104.75 2052.56103515625 1999.72900390625 1952.759033203125 1942.2509765625 1956.969970703125 2004.6099853515625 2031.2110595703125 2106.93994140625 2197.73095703125 2260.68896484375 2319.339111328125 2391.239013671875 2400.658935546875 2441.468994140625 2475.3798828125 2518.14990234375 2573.389892578125 2625.02001953125 2673.389892578125 2734.260009765625 2775.760986328125 2849.0009765625 2904.658935546875 2936.3701171875 2935.110107421875 2895.570068359375 2870.720947265625 2876.110107421875 2887.281005859375 2939.160888671875 3013.739990234375 3068.708984375 3095.320068359375 3038.81005859375 3034.361083984375 3025.75 3082.83203125 3040.592041015625 2992.15087890625 2987.070068359375 3031.6201171875 3083.87109375 3180.8798828125 3235.660888671875 3258.260009765625 3282.48095703125 3255.2099609375 3253.860107421875 3231.791015625 3218.27099609375 3206.800048828125 3211.968994140625 3221.85009765625 3260.8798828125 3351.341064453125 3376.429931640625 3366.291015625
2488.740966796875 2454.56005859375 2422.678955078125 2396.968994140625 2377.110107421875 2331.760986328125 2281.84912109375 2243.031005859375 2224.27099609375 2226.260986328125 2273.330078125 2392.26904296875 2471.071044921875 2523.6279296875 2607.029052734375 2630.799072265625 2634.220947265625 2646.868896484375 2696.719970703125 2719.260009765625 2810.592041015625 2812.4990234375 2862.64111328125 2931.6201171875 3014.5419921875 3092.60107421875 3028.89990234375 2993.610107421875 2965.760009765625 2938.0390625 2943.89794921875 2918.739990234375 2883.199951171875 2865.637939453125 2877.097900390625 2889.47900390625 2872.60791015625 2877.06005859375 2871.888916015625 2899.177978515625 2952.3701171875 2978.9189453125 3001.819091796875 2998.56005859375 3053.4609375 2995.302001953125 3019.94091796875 3072.029052734375 2975.830078125 2943.4609375 2939.260986328125 2869.469970703125 2740.9208984375 2676.179931640625 2607.719970703125 2566.64892578125 2492.611083984375 2453.2109375 2420.291015625 2392.85107421875 2381.2490234375 2366.321044921875 2348.118896484375 2319.531005859375 2278.529052734375 2251.60107421875 2226.85009765625 2194.069091796875 2184.14990234375 2194.510986328125 2173.60888671875 2180.26904296875 2191.44091796875 2204.409912109375 2201.3701171875 2193.590087890625 2180.06005859375 2131.81103515625 2091.111083984375 2034.93896484375 1988.8690185546875 1960.9100341796875 1960.8699951171875 1982.8489990234375 1989.6300048828125 2068.27001953125 2144.6201171875 2237.861083984375 2298.98095703125 2356.179931640625 2394.2900390625 2416.200927734375 2442.618896484375 2480.62890625 2515.989013671875 2580.839111328125 2627.02001953125 2679.718994140625 2738.180908203125 2793.591064453125 2865.510009765625 2882.3701171875 2889.419921875 2869.48095703125 2848.760986328125 2831.39892578125 2834.2099609375 2865.821044921875 2954.09912109375 3008.52001953125 3066.881103515625 3047.05908203125 2994.611083984375 2996.780029296875 3002.010986328125 3071.922119140625 3002.760009765625 2979.22802734375 3005.72802734375 3017.989013671875 3094.7919921875 3147.927978515625 3246.677978515625 3282.97900390625 3350.708984375 3330.840087890625 3283.490966796875 3249.950927734375 3258.10107421875 3248.571044921875 3249.180908203125 3294.90087890625 3296.89990234375 3296.75 3324.589111328125
2456.611083984375 2441.138916015625 2412.98095703125 2399.2890625 2382.2099609375 2352.948974609375 2293.259033203125 2247.718994140625 2230.09912109375 2241.138916015625 2283.19091796875 2348.93896484375 2430.22998046875 2492.39990234375 2550.860107421875 2583.43994140625 2593.83203125 2606.131103515625 2646.85888671875 2718.969970703125 2786.4599609375 2782.2900390625 2822.490966796875 2957.60888671875 3034.10009765625 3105.09912109375 3022.680908203125 2966.31005859375 2946.4619140625 2915.010986328125 2909.8291015625 2894.639892578125 2853.9599609375 2846.4609375 2849.861083984375 2862.7080078125 2859.111083984375 2864.801025390625 2823.889892578125 2844.568115234375 2899.47900390625 2966.072021484375 3042.19091796875 3075.27099609375 2988.069091796875 2934.658935546875 2940.830078125 2988.72900390625 2911.801025390625 2853.239990234375 2839.1201171875 2860.010009765625 2808.8310546875 2730.60888671875 2687.208984375 2601.81005859375 2550.25 2482.22998046875 2458.31005859375 2432.12890625 2410.09912109375 2379.821044921875 2350.389892578125 2320.60107421875 2294.139892578125 2282.340087890625 2244.989990234375 2220.18896484375 2207.909912109375 2206.59912109375 2244.339111328125 2234.1201171875 2236.551025390625 2228.64892578125 2222.388916015625 2217.429931640625 2210.300048828125 2179.739990234375 2130.410888671875 2076.60888671875 2035.5489501953125 1998.3399658203125 1980.5889892578125 2034.199951171875 2058.698974609375 2015.6209716796875 2118.091064453125 2168.8291015625 2248.468994140625 2327.281005859375 2388.2099609375 2423.10009765625 2432.408935546875 2452.06103515625 2486.071044921875 2556.840087890625 2599.35107421875 2638.94091796875 2703.930908203125 2771.31005859375 2807.22900390625 2826.949951171875 2834.44091796875 2805.839111328125 2811.7919921875 2800.2900390625 2791.97998046875 2830.1689453125 2896.10205078125 3006.169921875 3026.8701171875 3034.592041015625 2989.330078125 2961.549072265625 2951.321044921875 2976.720947265625 2994.01904296875 2977.409912109375 2997.830078125 3010.97900390625 3042.2900390625 3102.7099609375 3175.260986328125 3270.989013671875 3394.341064453125 3387.30908203125 3342.611083984375 3323.591064453125 3307.14990234375 3311.97900390625 3337.02099609375 3284.10107421875 3265.159912109375 3250.62109375 3246.160888671875
2492.4609375 2478.64990234375 2449.408935546875 2421.56103515625 2393.1279296875 2369.489013671875 2314.381103515625 2267.510986328125 2245.239013671875 2249.200927734375 2282.739990234375 2332.56005859375 2399.889892578125 2460.360107421875 2532.408935546875 2548.638916015625 2588.699951171875 2617.64990234375 2621.5390625 2689.339111328125 2757.18994140625 2778.7109375 2819.908935546875 2872.60107421875 2958.839111328125 3054.59912109375 3001.0400390625 2966.072021484375 2928.12109375 2903.470947265625 2889.610107421875 2877.759033203125 2859.618896484375 2838.89892578125 2837.39111328125 2835.7890625 2835 2794.4208984375 2792.51806640625 2804.26904296875 2845.489013671875 2910.26806640625 2994.73095703125 3073.118896484375 2987.760986328125 2930.7080078125 2908.60107421875 2879.4189453125 2822.429931640625 2801.64990234375 2793.071044921875 2788.89111328125 2843.9189453125 2819.820068359375 2722.531005859375 2649.718994140625 2556.929931640625 2514.592041015625 2484.72998046875 2460.339111328125 2427.050048828125 2405.679931640625 2378.489990234375 2334.868896484375 2329.049072265625 2311.7490234375 2284.909912109375 2242.468994140625 2253.031005859375 2246.14990234375 2279.970947265625 2263.929931640625 2268.868896484375 2268.18896484375 2271.89892578125 2264.44091796875 2243.510009765625 2209.070068359375 2168.14892578125 2122.781005859375 2082.158935546875 2032.1300048828125 2018.5799560546875 2056.8310546875 2083.458984375 2022.321044921875 2064.260009765625 2124.639892578125 2193.77001953125 2259.02001953125 2345 2412.591064453125 2433.2099609375 2449.77099609375 2471.208984375 2534.111083984375 2567.680908203125 2588.178955078125 2655.718994140625 2716.572021484375 2755.4990234375 2811.25 2788.97900390625 2759.35009765625 2774.799072265625 2758.27001953125 2770.10009765625 2815.62890625 2893.779052734375 2974.989990234375 2996.1279296875 2973.319091796875 2967.16796875 2928.531005859375 2920.14208984375 2958.611083984375 2975.44091796875 2976.60107421875 2989.05908203125 3000.280029296875 3036.85107421875 3082.7509765625 3163.93896484375 3271.27001953125 3377.3798828125 3388.720947265625 3367.77001953125 3352.10107421875 3355.52099609375 3366.27001953125 3317.35888671875 3276.60009765625 3250.3798828125 3228.448974609375 3205.4599609375
2559.2509765625 2544.65087890625 2510.489013671875 2476.739013671875 2418.5 2388.5400390625 2342.60888671875 2310.821044921875 2281.7109375 2276.110107421875 2291.799072265625 2326.009033203125 2374.72900390625 2482.549072265625 2554.34912109375 2546.85888671875 2588.0419921875 2622.9609375 2651.330078125 2686.98095703125 2736.35888671875 2781.94091796875 2832.4990234375 2892.118896484375 2953.760009765625 3048.01904296875 2988.152099609375 2937.200927734375 2921.860107421875 2899.01904296875 2879.751953125 2868.6201171875 2860.85107421875 2842.699951171875 2834.719970703125 2832.927978515625 2811.989990234375 2784.679931640625 2776.200927734375 2779.259033203125 2804.259033203125 2853.430908203125 2914.48193359375 2957.37890625 2960.429931640625 3022.718994140625 2949.281005859375 2887.62109375 2823.27001953125 2776.550048828125 2764.381103515625 2759.06103515625 2759.200927734375 2795.44091796875 2731.781005859375 2677.2900390625 2605.6298828125 2550.259033203125 2502.550048828125 2492.091064453125 2459.97900390625 2424.55908203125 2388.531005859375 2363.530029296875 2351.2099609375 2320.14990234375 2294.64892578125 2242.01904296875 2296.1201171875 2284.780029296875 2325.06005859375 2304.10888671875 2309.821044921875 2318.919921875 2320.40087890625 2318.2509765625 2282.321044921875 2235.510009765625 2202.3291015625 2157.18896484375 2122.02001953125 2085.52099609375 2050.23095703125 2073.4189453125 2102.68896484375 2040.469970703125 2048.23095703125 2110.18994140625 2175.34912109375 2239.368896484375 2313.68994140625 2372.909912109375 2422.5810546875 2444.90087890625 2459.580078125 2496.64990234375 2517.700927734375 2542.85107421875 2608.091064453125 2672.428955078125 2710.708984375 2774.4580078125 2777.660888671875 2734.281005859375 2724.0791015625 2730.8310546875 2753.360107421875 2815.6689453125 2888.69091796875 2945.131103515625 3011.551025390625 2954.510009765625 2918.3701171875 2909.27099609375 2918.0390625 2923.660888671875 2943.639892578125 2970.361083984375 2982.7109375 2996.299072265625 3033.2109375 3078.530029296875 3162.509033203125 3262.72900390625 3391.218994140625 3403.98095703125 3389.4609375 3391.5791015625 3450.342041015625 3383.55908203125 3296.950927734375 3270.509033203125 3238.97900390625 3207.75 3189.7490234375
2614.320068359375 2586.718994140625 2560.631103515625 2527.291015625 2454.83203125 2414.179931640625 2362.18994140625 2340.470947265625 2332.929931640625 2314.64892578125 2301.861083984375 2337.179931640625 2391.169921875 2506.85888671875 2538.631103515625 2578.409912109375 2645.881103515625 2670.68994140625 2683.39892578125 2728.708984375 2753.030029296875 2799.199951171875 2875.658935546875 2937.05908203125 3021.697998046875 3092.7080078125 3025.510009765625 2936.39892578125 2913.1708984375 2887.760009765625 2874.80810546875 2870.6708984375 2860.158935546875 2853.658935546875 2848.919921875 2824.360107421875 2805.4208984375 2802.05908203125 2777.779052734375 2751.0810546875 2770.259033203125 2803.220947265625 2840.1298828125 2875.2890625 2894.048095703125 2923.91796875 2964.89892578125 2940.27001953125 2827.69091796875 2784.89111328125 2756.18896484375 2769 2742.44091796875 2750.47900390625 2760.111083984375 2688.320068359375 2614.9208984375 2578.580078125 2514.39990234375 2471.47900390625 2431.947998046875 2396.469970703125 2378.23095703125 2360.280029296875 2347.06103515625 2289.5 2272.868896484375 2273.958984375 2306.81005859375 2320.669921875 2359.9189453125 2357.239013671875 2355.930908203125 2376.071044921875 2376.8798828125 2368.030029296875 2320.8310546875 2274.75 2225.218994140625 2189.300048828125 2166.281005859375 2122.260009765625 2086.260009765625 2078.169921875 2113.75 2050.39990234375 2038.4189453125 2106.2900390625 2183.5810546875 2227.930908203125 2314.631103515625 2365.419921875 2401.26904296875 2454.541015625 2464.0009765625 2466.35009765625 2495.18994140625 2531.89892578125 2587.18994140625 2627.6689453125 2676.029052734375 2711.050048828125 2746.48095703125 2718.469970703125 2696.5400390625 2706.389892578125 2728.52099609375 2774.698974609375 2810.510986328125 2858.64111328125 2932.248046875 2913.590087890625 2899.10009765625 2895.18896484375 2896.94091796875 2919.75 2940.948974609375 2962.302001953125 2978.90087890625 3000.18994140625 3025.610107421875 3092.071044921875 3189.77099609375 3281.361083984375 3393.85107421875 3493.9189453125 3511.631103515625 3520.069091796875 3470.64111328125 3388.631103515625 3293.089111328125 3256.631103515625 3228.092041015625 3190.47900390625 3176.800048828125
2646.779052734375 2653.25 2637.861083984375 2553.090087890625 2489.660888671875 2427.12109375 2394.428955078125 2379.10107421875 2375.428955078125 2372.799072265625 2339.5419921875 2345.260986328125 2403.52001953125 2487.64794921875 2530.339111328125 2587.5400390625 2685.840087890625 2745.4208984375 2781.759033203125 2798.791015625 2813.64892578125 2860.091064453125 2915.570068359375 2977.14794921875 2996.12109375 2996.639892578125 3037.15087890625 2947.22900390625 2910.198974609375 2891.7099609375 2879.821044921875 2870.2490234375 2858.070068359375 2856.159912109375 2851.60107421875 2843.01904296875 2825.158935546875 2809.10791015625 2781.458984375 2739.06005859375 2728.198974609375 2757.2109375 2773.8798828125 2804.591064453125 2812.779052734375 2845.449951171875 2856.93798828125 2843.39892578125 2824.799072265625 2777.510009765625 2762.118896484375 2751.220947265625 2743.740966796875 2726.408935546875 2713.260009765625 2666.531005859375 2605.090087890625 2541.368896484375 2478.449951171875 2457.158935546875 2411.041015625 2393.888916015625 2378.56005859375 2352.409912109375 2315.9609375 2285.111083984375 2310.531005859375 2291.3291015625 2336.25 2352.430908203125 2412.509033203125 2433.52099609375 2448.281005859375 2438.030029296875 2446.12890625 2422.361083984375 2371.830078125 2330.071044921875 2295.291015625 2242.98095703125 2203.180908203125 2165.010009765625 2127.19091796875 2116.969970703125 2106.12109375 2062.550048828125 2034.5889892578125 2096.429931640625 2166.990966796875 2226.699951171875 2257.569091796875 2330.449951171875 2379.23095703125 2404.68994140625 2429.85888671875 2450.330078125 2484.56103515625 2509.0390625 2548.010986328125 2603.10107421875 2637.94091796875 2654.429931640625 2681.66796875 2678.3291015625 2668.39794921875 2667.22802734375 2683.2900390625 2705.85888671875 2750.509033203125 2787.571044921875 2827.8798828125 2852.14990234375 2859.340087890625 2868.549072265625 2895.089111328125 2921.15087890625 2939.15087890625 2959.3798828125 2982.907958984375 3005.69189453125 3030.5810546875 3123.25 3222.510986328125 3305.31103515625 3424.77099609375 3492.490966796875 3469.0390625 3451.300048828125 3461.881103515625 3422.218994140625 3380.319091796875 3250.178955078125 3216.56103515625 3183.720947265625 3167.158935546875
2710.799072265625 2737.94091796875 2683.429931640625 2582.239013671875 2510.958984375 2480.27001953125 2491.64892578125 2459.1708984375 2421.458984375 2421.387939453125 2379.14794921875 2348.468994140625 2384.341064453125 2437.968994140625 2483.299072265625 2599.94091796875 2690.948974609375 2704.510009765625 2771.7509765625 2867.2490234375 2914.0810546875 2871.860107421875 2879.05908203125 2899.30908203125 2907.87109375 2921.430908203125 2974.681884765625 2976.529052734375 2923.590087890625 2897.02001953125 2883.39111328125 2871.698974609375 2858.239013671875 2861.389892578125 2834.360107421875 2828.300048828125 2813.718994140625 2805.14111328125 2804.469970703125 2741.9208984375 2713.2509765625 2716.969970703125 2725.39990234375 2745.02099609375 2752.5791015625 2776.080078125 2775.657958984375 2770.31103515625 2799.868896484375 2758.868896484375 2729.569091796875 2708.6201171875 2702.450927734375 2705.450927734375 2662.887939453125 2630.4189453125 2578.841064453125 2529.0810546875 2478.820068359375 2440.280029296875 2414.618896484375 2415.368896484375 2380.06005859375 2365.010009765625 2341.529052734375 2315.7900390625 2302.169921875 2309.26904296875 2355.739013671875 2381.37890625 2446.510009765625 2518.2890625 2538.510986328125 2519.23095703125 2520.010009765625 2499.22998046875 2457.76904296875 2412.30908203125 2346.091064453125 2285.9599609375 2251.611083984375 2205.698974609375 2164.39990234375 2145.699951171875 2129.779052734375 2082.339111328125 2037.739013671875 2070.76904296875 2123.419921875 2193.72900390625 2266.75 2309.7099609375 2358.300048828125 2366.7900390625 2379.68994140625 2404.4189453125 2424.25 2450.7900390625 2477.361083984375 2542.910888671875 2573.618896484375 2580.908935546875 2585.5791015625 2606.971923828125 2623.419921875 2636.218994140625 2641.93798828125 2696.39892578125 2719.218994140625 2738.43896484375 2763.989990234375 2816.968994140625 2830.049072265625 2862.111083984375 2886.949951171875 2916.9189453125 2946.948974609375 2968.200927734375 2991.458984375 3019.739990234375 3056.658935546875 3165.65087890625 3264.219970703125 3351.43798828125 3459.531005859375 3477.408935546875 3467.549072265625 3437.489013671875 3411.861083984375 3398.010009765625 3392.260986328125 3293.781005859375 3219.658935546875 3186.4609375 3158.820068359375
2726.12109375 2676.0810546875 2644.2900390625 2592.93994140625 2544.37890625 2554.39990234375 2575.409912109375 2526.260986328125 2516.368896484375 2474.2080078125 2404.760009765625 2386.09912109375 2379.10107421875 2410.910888671875 2462.2900390625 2547.5810546875 2622.319091796875 2682.801025390625 2730.760986328125 2801.73095703125 2802.5009765625 2804.449951171875 2839.659912109375 2866.259033203125 2869.4189453125 2883.090087890625 2939.51904296875 3019.2109375 2950.509033203125 2909.700927734375 2902.759033203125 2883.80908203125 2870.779052734375 2846.19091796875 2821.541015625 2817.991943359375 2816.342041015625 2818.030029296875 2793.2099609375 2736.6220703125 2706.821044921875 2689.908935546875 2690.09912109375 2701.1689453125 2699.239013671875 2711.9609375 2703.071044921875 2704.44091796875 2696.678955078125 2731.260009765625 2669.3310546875 2659.9990234375 2642.60009765625 2638.85009765625 2621.68896484375 2609.56103515625 2569.52099609375 2534.781005859375 2506.080078125 2465.049072265625 2434.448974609375 2410.93896484375 2381.239990234375 2370.919921875 2348.570068359375 2327.658935546875 2318.81005859375 2322.178955078125 2368.7099609375 2427.52099609375 2471.449951171875 2569.52099609375 2608.469970703125 2588.089111328125 2605.448974609375 2596.27099609375 2527.051025390625 2451.6298828125 2406.1298828125 2345.18994140625 2322.19091796875 2283.5791015625 2199.469970703125 2161.12109375 2140.830078125 2099.080078125 2058.31005859375 2063.580078125 2091.118896484375 2150.530029296875 2232.529052734375 2287.010986328125 2336.6708984375 2348.949951171875 2364.93896484375 2393.840087890625 2398.791015625 2404.800048828125 2430.68896484375 2465.89111328125 2496.177978515625 2507.570068359375 2518.760986328125 2537.448974609375 2559.631103515625 2597.569091796875 2631.830078125 2655.5791015625 2693.281005859375 2733.220947265625 2759.01904296875 2797.820068359375 2815.387939453125 2850.929931640625 2885.589111328125 2926.659912109375 2965.69091796875 2987.93896484375 3011.611083984375 3051.799072265625 3129.410888671875 3233.3779296875 3324.9580078125 3423.721923828125 3477.610107421875 3470.658935546875 3462.84912109375 3444.7490234375 3410.509033203125 3385.260009765625 3358.678955078125 3299.889892578125 3244.760986328125 3194.8701171875 3156.5400390625
2697.110107421875 2654.907958984375 2626.549072265625 2613.02001953125 2590.8310546875 2604.590087890625 2603.89111328125 2564.549072265625 2543.041015625 2488.361083984375 2429.14111328125 2407.281005859375 2399.7490234375 2432.44091796875 2476.31103515625 2532.66796875 2608.3798828125 2694.7900390625 2704.158935546875 2739.927978515625 2770.34912109375 2792.93994140625 2845.65087890625 2837.889892578125 2843.81103515625 2860.40087890625 2918.888916015625 2982.319091796875 3001.198974609375 2932.18896484375 2909.458984375 2894.989013671875 2887.26806640625 2850.781005859375 2828.69091796875 2818.08203125 2808.419921875 2807.451904296875 2805.9609375 2748.240966796875 2698.87890625 2675.318115234375 2662.760986328125 2649.93798828125 2645.801025390625 2654.80908203125 2654.612060546875 2644.679931640625 2639.64111328125 2645.60888671875 2649.35888671875 2634.93994140625 2623.64794921875 2603.969970703125 2596.860107421875 2587.218994140625 2564.200927734375 2535.5 2515.31005859375 2460.031005859375 2450.5390625 2401.549072265625 2403.908935546875 2393.589111328125 2354.041015625 2325.219970703125 2333.240966796875 2351.930908203125 2415.740966796875 2434.72998046875 2525.31005859375 2613.320068359375 2672.888916015625 2669.7900390625 2671.02001953125 2628.62109375 2567.300048828125 2492.510009765625 2455.889892578125 2407.18896484375 2396.531005859375 2332.510986328125 2262.47900390625 2192.889892578125 2165.069091796875 2144.240966796875 2085.97998046875 2066.2890625 2093.80908203125 2151.48095703125 2183.15087890625 2231.958984375 2268.240966796875 2288.820068359375 2317.9599609375 2331.610107421875 2326.9990234375 2346.719970703125 2372.56103515625 2393.818115234375 2420.51904296875 2447.861083984375 2471.680908203125 2503.111083984375 2534.64111328125 2566.64990234375 2601.77099609375 2649.919921875 2698.0400390625 2736.4599609375 2756.3720703125 2792.948974609375 2836.158935546875 2888.27001953125 2952 2995.7509765625 3010.87890625 3034.948974609375 3075.718994140625 3150.75 3235.320068359375 3309.337890625 3394.169921875 3461.98095703125 3488.7890625 3463.7109375 3454.65087890625 3443.2099609375 3450.740966796875 3409.27099609375 3345.60107421875 3296.26904296875 3239.450927734375 3196.111083984375 3154.4208984375
2713.930908203125 2672.639892578125 2663.56201171875 2637.81005859375 2614.990966796875 2605.60009765625 2611.37109375 2594.77099609375 2585.111083984375 2508.5400390625 2467.430908203125 2427.90087890625 2426.5400390625 2462.299072265625 2512.301025390625 2564.5810546875 2630.301025390625 2690.6201171875 2711.85009765625 2714.23095703125 2726.6708984375 2763.341064453125 2891.34912109375 2871.64892578125 2872.5810546875 2881.909912109375 2901.652099609375 2937.530029296875 2997.718994140625 2983.7099609375 2941.10009765625 2918.659912109375 2903.319091796875 2865.64892578125 2820.84912109375 2813.909912109375 2819.928955078125 2800.14892578125 2787.14990234375 2787.02197265625 2707.968994140625 2664.069091796875 2656.791015625 2637.30908203125 2624.097900390625 2610.60107421875 2609.669921875 2602.218994140625 2616.260009765625 2605.958984375 2607.3798828125 2592.2490234375 2576.510009765625 2544.029052734375 2533.428955078125 2537.52001953125 2535.429931640625 2517.4990234375 2502.89892578125 2447.760009765625 2413.970947265625 2397.1708984375 2405.6708984375 2391.760986328125 2358.180908203125 2360.361083984375 2369.05908203125 2376.660888671875 2410.8310546875 2459.638916015625 2548.449951171875 2643.718994140625 2721.428955078125 2697.450927734375 2669.159912109375 2654.909912109375 2615.658935546875 2532.071044921875 2489.030029296875 2456.3798828125 2417.85888671875 2364.861083984375 2297.291015625 2228.291015625 2190.8701171875 2161.44091796875 2111.5390625 2065.321044921875 2122.39892578125 2119.9189453125 2157.39892578125 2178.031005859375 2204.35009765625 2239.60009765625 2247.178955078125 2252.98095703125 2263.049072265625 2261.321044921875 2302.928955078125 2331.4990234375 2361.23095703125 2385.3720703125 2401.68994140625 2433.010009765625 2477.9208984375 2516.010009765625 2584.3291015625 2632.889892578125 2668.509033203125 2729.2900390625 2791.658935546875 2859.821044921875 2930.360107421875 2976.908935546875 3011.02001953125 3062.33203125 3084.950927734375 3116.708984375 3152.410888671875 3241.85205078125 3309.51904296875 3394.928955078125 3392.919921875 3389.3701171875 3405 3448.2890625 3440.611083984375 3425.239990234375 3398.679931640625 3362.820068359375 3382.8310546875 3327.7109375 3242.22998046875 3185.52099609375 3148.22998046875
2697.6689453125 2676.739013671875 2663.35107421875 2651.6298828125 2632.72900390625 2627.9580078125 2588.300048828125 2573.85107421875 2563.85888671875 2530.90087890625 2474.160888671875 2449.740966796875 2463.5390625 2500.72998046875 2554.819091796875 2613.639892578125 2681.580078125 2719.6689453125 2713.949951171875 2709.569091796875 2743.449951171875 2791.18896484375 2857.759033203125 2869.591064453125 2875.071044921875 2878.989990234375 2897.09912109375 2958.3779296875 3030.1220703125 3064.319091796875 2997.77099609375 2941.0791015625 2891.93798828125 2877.97998046875 2836.0419921875 2797.5791015625 2792.02001953125 2775.84912109375 2777.070068359375 2768.9609375 2742.0009765625 2679.368896484375 2653.529052734375 2638.091064453125 2616.958984375 2604.64111328125 2590.81103515625 2575.489990234375 2554.64892578125 2562.718994140625 2568.0009765625 2545.4208984375 2521.0400390625 2497.39892578125 2487.291015625 2486.39794921875 2475.22900390625 2461.2490234375 2440.718994140625 2411.409912109375 2402 2408.75 2434.8291015625 2402.5400390625 2398.02001953125 2398.8310546875 2409.31103515625 2405.490966796875 2452.98095703125 2489.8701171875 2586.9609375 2677.840087890625 2719.18994140625 2678.8310546875 2623.5390625 2596.080078125 2577.18994140625 2551.080078125 2509.800048828125 2482.820068359375 2433.18896484375 2382.2490234375 2329.071044921875 2270.409912109375 2217.239990234375 2183.919921875 2138.510986328125 2110.928955078125 2085.360107421875 2124.071044921875 2138.448974609375 2148.52001953125 2180.550048828125 2191.800048828125 2211.340087890625 2235.35107421875 2255.051025390625 2272.868896484375 2297.908935546875 2325.5 2356.76904296875 2393.2900390625 2409.85888671875 2423.720947265625 2425.10205078125 2470.64111328125 2527.62890625 2579.35791015625 2679.800048828125 2797.2509765625 2870.948974609375 2864.31005859375 2870.280029296875 2904.888916015625 2917.64111328125 2962.678955078125 3057.240966796875 3185.8798828125 3245.39208984375 3297.071044921875 3390.970947265625 3375.02001953125 3357.839111328125 3349.81103515625 3358.949951171875 3488.199951171875 3413.35107421875 3393.509033203125 3359.73095703125 3327.9609375 3301.87890625 3289.990966796875 3312.06103515625 3249.320068359375 3178.60888671875
2713.339111328125 2694.47998046875 2673.43798828125 2666.5810546875 2647.68994140625 2643.840087890625 2600.64111328125 2578.889892578125 2564.3701171875 2512.4189453125 2483.319091796875 2482.759033203125 2509.18798828125 2560.881103515625 2651.178955078125 2699.458984375 2756.12890625 2767.8310546875 2725.1298828125 2732.06103515625 2769.7509765625 2821.950927734375 2829.708984375 2838.4580078125 2866.409912109375 2902.9208984375 2937.091064453125 3011.669921875 3091.241943359375 3093.16796875 3011.10009765625 2947.208984375 2905.7890625 2874.199951171875 2828.3310546875 2809.30908203125 2781.80908203125 2748.77001953125 2748.85009765625 2746.6708984375 2742.35009765625 2742.589111328125 2695.740966796875 2660.6201171875 2653.529052734375 2618.48095703125 2570.85791015625 2542.430908203125 2530.02001953125 2523.589111328125 2519.339111328125 2498.77099609375 2489.59912109375 2475.708984375 2457.2109375 2449.64111328125 2439.739990234375 2429.39892578125 2410.779052734375 2410.029052734375 2433.160888671875 2435.698974609375 2439.14111328125 2433.64892578125 2415.4189453125 2415.75 2430.68994140625 2454.39990234375 2454.14111328125 2528.908935546875 2614.15087890625 2704.60009765625 2711.3701171875 2647.10009765625 2606.760009765625 2571.10009765625 2563.75 2534.220947265625 2520.699951171875 2486.81005859375 2444.929931640625 2398.111083984375 2348.638916015625 2316.050048828125 2267.34912109375 2207.51904296875 2167.85107421875 2129.860107421875 2102.35009765625 2122.428955078125 2143.458984375 2152.160888671875 2159.739990234375 2182.85009765625 2210.360107421875 2236.760009765625 2269.5390625 2288.070068359375 2314.14990234375 2340.14990234375 2371.841064453125 2400.138916015625 2422.159912109375 2439.7490234375 2447.0791015625 2449.30908203125 2488.91796875 2580.1708984375 2672.590087890625 2791.10107421875 2833.7890625 2841.6708984375 2857.23095703125 2894.389892578125 2929.18994140625 2966.739990234375 3022.84912109375 3198.281005859375 3297.72998046875 3393.66796875 3434.48095703125 3364.9990234375 3337.6201171875 3321.59912109375 3304.85107421875 3402.35009765625 3347.5 3346.679931640625 3300.68896484375 3291.27099609375 3280.360107421875 3265.43896484375 3235.3701171875 3219.889892578125 3199.19091796875
2727.85888671875 2717.989013671875 2717.299072265625 2686.4599609375 2649.1220703125 2616.072021484375 2599.9990234375 2580.299072265625 2567.948974609375 2533.2919921875 2506.52001953125 2508.010009765625 2546.489013671875 2616.160888671875 2720.360107421875 2737.56103515625 2794.72900390625 2799.368896484375 2817.9599609375 2820.659912109375 2789.910888671875 2787.029052734375 2824.0791015625 2868.990966796875 2931.0791015625 2969.552001953125 3033.427978515625 3042.56103515625 3068.819091796875 3082.051025390625 2980.9599609375 2929.718994140625 2898.447998046875 2867.070068359375 2834.169921875 2837.23095703125 2801.708984375 2756.10009765625 2748.35205078125 2740.19189453125 2743.660888671875 2724.791015625 2703.2509765625 2694.7490234375 2682.160888671875 2645.06103515625 2591.93798828125 2553.16796875 2536.85107421875 2537.35107421875 2530.81005859375 2502.14892578125 2490.930908203125 2504.341064453125 2493.4599609375 2493.52099609375 2465.6708984375 2449.407958984375 2448.10888671875 2445.071044921875 2467.1220703125 2467.7900390625 2475.18896484375 2463.799072265625 2437.4599609375 2425.02099609375 2427.070068359375 2475.708984375 2481.881103515625 2563.02099609375 2623.5 2719.281005859375 2696.02099609375 2664.089111328125 2644.531005859375 2604.801025390625 2560.698974609375 2560.360107421875 2532.760009765625 2506.60107421875 2476.111083984375 2431.169921875 2379.841064453125 2339.14892578125 2301.47998046875 2248.35107421875 2204.989990234375 2154.22998046875 2127.85009765625 2122.6298828125 2128.610107421875 2154 2161.75 2189.010009765625 2214.861083984375 2236.85107421875 2262.118896484375 2285.339111328125 2311.34912109375 2333.6279296875 2362.909912109375 2392.888916015625 2428.37109375 2453.56103515625 2472.2490234375 2488.631103515625 2496.299072265625 2531.2890625 2641.419921875 2724.300048828125 2793.9189453125 2846.85888671875 2877.65087890625 2899.60107421875 2919.4189453125 2979.85009765625 3048.419921875 3144.780029296875 3280.55908203125 3359.740966796875 3417.97900390625 3349.43896484375 3313.12890625 3292.43798828125 3280.9609375 3266.801025390625 3276.510009765625 3261.590087890625 3266.40087890625 3246.819091796875 3247.9189453125 3239.408935546875 3219.4189453125 3185.6201171875 3148.26904296875
2755.489990234375 2750.5400390625 2704.708984375 2686.5400390625 2655.85107421875 2618.678955078125 2595.739013671875 2594.428955078125 2578.199951171875 2533.658935546875 2510.22998046875 2517.541015625 2576.9599609375 2659.48095703125 2716.18994140625 2725.219970703125 2737.930908203125 2747.6201171875 2762.388916015625 2779.22900390625 2784.2490234375 2787.64794921875 2832.489990234375 2907.489013671875 3015.81103515625 2975.360107421875 2953.31103515625 2971.6201171875 3001.279052734375 3031.571044921875 3000.840087890625 2914.138916015625 2880.841064453125 2860.322021484375 2845.6298828125 2860.4599609375 2828.43798828125 2776.0390625 2766.7509765625 2736.6220703125 2724.669921875 2702.928955078125 2692.791015625 2674 2674.6201171875 2654.280029296875 2603.85888671875 2581.091064453125 2553.071044921875 2565.050048828125 2561.139892578125 2549.659912109375 2538.840087890625 2564.52099609375 2563.009033203125 2545.110107421875 2523.801025390625 2521.35888671875 2507.3701171875 2486.458984375 2493.80908203125 2532.4580078125 2506.2509765625 2457.14990234375 2456.35107421875 2440.4599609375 2430.639892578125 2453.5400390625 2520.678955078125 2570.410888671875 2637.2099609375 2737.010986328125 2734.239990234375 2681.041015625 2657.300048828125 2619.84912109375 2595.5 2583.830078125 2542.010009765625 2515.469970703125 2489.489990234375 2448.551025390625 2397.22900390625 2359.60888671875 2334.958984375 2283.281005859375 2223.949951171875 2183.220947265625 2154.279052734375 2146.259033203125 2169.64892578125 2180.31005859375 2171.1298828125 2181.2099609375 2215.5009765625 2243.989013671875 2264.591064453125 2300.59912109375 2333.75 2353.260009765625 2410.697998046875 2442.39892578125 2437.06201171875 2460.7099609375 2485.31201171875 2498.240966796875 2515.549072265625 2523.822021484375 2536.7099609375 2673.800048828125 2746.010009765625 2807.049072265625 2870.510986328125 2877.680908203125 2907.9208984375 3038.989990234375 3107.760986328125 3194.7509765625 3266.740966796875 3270.31103515625 3374.89990234375 3372.990966796875 3301.118896484375 3275.02001953125 3257.15087890625 3236.760986328125 3222.919921875 3215.12109375 3212.84912109375 3232.658935546875 3216.801025390625 3196.06005859375 3183.8798828125 3160.299072265625 3139.698974609375
2755.330078125 2729.6201171875 2696.47998046875 2686.070068359375 2668.12109375 2621.759033203125 2614.6689453125 2598.9990234375 2579.48095703125 2536.700927734375 2521.552001953125 2548.430908203125 2613.780029296875 2686.239013671875 2704.909912109375 2719.1201171875 2729.320068359375 2736.3779296875 2764.0791015625 2792.66796875 2792.489990234375 2821.1298828125 2868.6708984375 2997.81005859375 3017.68896484375 2934.928955078125 2894.031005859375 2900.780029296875 2938.968994140625 2978.15087890625 3021.40087890625 2952.3798828125 2895.39111328125 2875.721923828125 2857.35009765625 2859.639892578125 2864.970947265625 2811.010986328125 2792.7919921875 2775.419921875 2728.68994140625 2697.550048828125 2697.02099609375 2679.3310546875 2690.15087890625 2662.27001953125 2641.7890625 2626.847900390625 2660.30908203125 2616.929931640625 2626.279052734375 2604.679931640625 2605.44091796875 2618.470947265625 2615.09912109375 2600.908935546875 2613.590087890625 2603.62109375 2580.010009765625 2546.490966796875 2570.680908203125 2529.44091796875 2490.341064453125 2466.049072265625 2466.0810546875 2457.62109375 2448.98095703125 2456.387939453125 2503.10009765625 2580.178955078125 2643.85009765625 2730.051025390625 2819.740966796875 2756.708984375 2719.679931640625 2684.389892578125 2660.239990234375 2650.87109375 2619.14990234375 2569.530029296875 2523.868896484375 2486.739990234375 2461.208984375 2419.449951171875 2388.669921875 2330.25 2284.39892578125 2232.341064453125 2200.468994140625 2171.3798828125 2175.160888671875 2180.6298828125 2201.949951171875 2226.3291015625 2247.781005859375 2289.830078125 2341.139892578125 2384.6298828125 2425.779052734375 2436.01904296875 2498.698974609375 2556.291015625 2549.071044921875 2506.409912109375 2491.820068359375 2503.759033203125 2528.868896484375 2548.22900390625 2562.9599609375 2591.830078125 2705.62109375 2781.52099609375 2851.301025390625 2862.4990234375 2923.842041015625 3073.218994140625 3181.799072265625 3294.65087890625 3231.910888671875 3230.56103515625 3289.73095703125 3403.68896484375 3312.69091796875 3274.1708984375 3249.509033203125 3222.760009765625 3204.638916015625 3193.700927734375 3187.111083984375 3182.740966796875 3187.072021484375 3170.8798828125 3141.39111328125 3130.35009765625 3117.47900390625
2774.0390625 2756.791015625 2710.591064453125 2715.7490234375 2690.510986328125 2658.489990234375 2633.97900390625 2627.5810546875 2604.1298828125 2556.97900390625 2584.84912109375 2600.35009765625 2626.35107421875 2665.158935546875 2692.929931640625 2710.178955078125 2755.908935546875 2771.860107421875 2785.0791015625 2816.368896484375 2840.908935546875 2868.58203125 2940.697998046875 3111.2109375 3009.220947265625 2913.39892578125 2886.611083984375 2887.0400390625 2878.610107421875 2931.8291015625 2968.4580078125 3017.8798828125 2952.799072265625 2918.510986328125 2894.31103515625 2886.89111328125 2902.43994140625 2923.071044921875 2866.139892578125 2805.93994140625 2748.368896484375 2721.010009765625 2711.2490234375 2714.489990234375 2733.5810546875 2721.069091796875 2695.138916015625 2710.179931640625 2708.6201171875 2688.889892578125 2726.64990234375 2769.091064453125 2702.159912109375 2655.830078125 2646.160888671875 2649.510009765625 2640.39892578125 2651.68994140625 2627.009033203125 2584.10009765625 2549.381103515625 2514.010009765625 2473.388916015625 2466.75 2479.570068359375 2472.970947265625 2468.010986328125 2484.4189453125 2534.0810546875 2582.39990234375 2653.23095703125 2741.02001953125 2843.8291015625 2845.35009765625 2818.259033203125 2776.801025390625 2744.12890625 2739.049072265625 2704.680908203125 2651.0810546875 2581.429931640625 2541.888916015625 2511.970947265625 2474.178955078125 2418.64892578125 2360.580078125 2325.02099609375 2280.60107421875 2246.409912109375 2205.8798828125 2197.320068359375 2209.888916015625 2236.989990234375 2268.409912109375 2325.319091796875 2381.428955078125 2402.139892578125 2438.89990234375 2479.158935546875 2519.60009765625 2591.658935546875 2612.029052734375 2623.419921875 2567.428955078125 2519.208984375 2515.220947265625 2549.569091796875 2562.618896484375 2586.739013671875 2613.14892578125 2650.12109375 2750.51904296875 2824.8310546875 2882.260009765625 2963.72900390625 3104.071044921875 3180.19091796875 3232.041015625 3207.6298828125 3209.15087890625 3227.5791015625 3320.218994140625 3346.9189453125 3291.131103515625 3257.31005859375 3230.069091796875 3202.958984375 3186.131103515625 3174.799072265625 3165.239013671875 3155.469970703125 3144.220947265625 3114.9599609375 3094.7900390625 3081.090087890625
2742.85888671875 2732.02001953125 2715.949951171875 2685.868896484375 2673.37109375 2657.81005859375 2641.618896484375 2624.260986328125 2597.97900390625 2595.15087890625 2614.118896484375 2636.0400390625 2640.40087890625 2641.580078125 2685.73095703125 2713.60205078125 2759.801025390625 2807.550048828125 2843.009033203125 2885.219970703125 2913.409912109375 2980.18994140625 3025.22998046875 3033.15087890625 3005.450927734375 2928.56103515625 2878.10791015625 2871.048095703125 2837.31103515625 2873.34912109375 2936.97998046875 3049.01904296875 3025.739013671875 2962.660888671875 2950.402099609375 2939.7509765625 2973.820068359375 3009.18994140625 2940.090087890625 2879.8798828125 2781.798095703125 2775.239990234375 2771.1201171875 2779.41796875 2807.6689453125 2769.241943359375 2754.68896484375 2760.590087890625 2754.698974609375 2772.180908203125 2845.9189453125 2834.93896484375 2756.909912109375 2735.699951171875 2725.969970703125 2694.8291015625 2637.468994140625 2621.77099609375 2588.281005859375 2565.160888671875 2536.6220703125 2493.218994140625 2467.110107421875 2466.740966796875 2471.5810546875 2492.239013671875 2513.031005859375 2551.31103515625 2536.3720703125 2594.7109375 2663.81005859375 2734.85107421875 2840.3701171875 2835.4189453125 2777.12890625 2766.18994140625 2763.60009765625 2756.779052734375 2702.6298828125 2638.049072265625 2580.989990234375 2547.919921875 2510.759033203125 2467.611083984375 2435.429931640625 2396.321044921875 2346.4189453125 2324.708984375 2285.6298828125 2249.77001953125 2227.449951171875 2256.52099609375 2302.069091796875 2364.868896484375 2441.071044921875 2454.0009765625 2467.320068359375 2489.618896484375 2531.428955078125 2605.40087890625 2655.669921875 2665.489990234375 2672.970947265625 2647.591064453125 2574.071044921875 2557.4208984375 2562.131103515625 2570.029052734375 2607.008056640625 2644.0009765625 2667.238037109375 2696.368896484375 2782.409912109375 2899.239990234375 2954.590087890625 3086.72900390625 3161.990966796875 3219.760986328125 3197.509033203125 3186.708984375 3189.280029296875 3252.06005859375 3325.861083984375 3305.070068359375 3271.490966796875 3236.868896484375 3204.291015625 3184.708984375 3169.62109375 3152.93896484375 3135.35888671875 3120.85107421875 3105.6689453125 3084.35009765625 3057.62890625
2738.2958984375 2727.303955078125 2722.174072265625 2716.593994140625 2665.992919921875 2663.177001953125 2660.7041015625 2630.6669921875 2601.760009765625 2575.5009765625 2619.6298828125 2650.18798828125 2673.5859375 2682.35400390625 2715.340087890625 2743.10009765625 2798.573974609375 2856.468017578125 2906.548095703125 2964.5830078125 2989.596923828125 2992.492919921875 2956.1689453125 2951.4189453125 2957.35791015625 2899.98095703125 2828.802001953125 -9999 -9999 2839.05810546875 2903.35205078125 2988.4189453125 3034.819091796875 3026.031982421875 3032.60107421875 2989.9208984375 3006.35205078125 3025.157958984375 3009.419921875 2967 2871.5419921875 2837.639892578125 2849.5 2878.389892578125 2843.157958984375 2800.910888671875 2803.989013671875 2834.6689453125 2831.791015625 2871.840087890625 2901.6689453125 2830.2900390625 2781.3701171875 2759.31103515625 2726.260009765625 2692.840087890625 2647.81103515625 2640.571044921875 2621.381103515625 2572.27001953125 2531.84912109375 2502.239990234375 2489.219970703125 2473.25 2491.989990234375 2554.44091796875 2566.631103515625 2563.569091796875 2544.06103515625 2571.571044921875 2640.44091796875 2718.841064453125 2836.6201171875 2775.75 2734.430908203125 2713.0400390625 2703.37890625 2683.590087890625 2660.279052734375 2612.458984375 2568.739990234375 2534.530029296875 2499.618896484375 2468.860107421875 2432.47998046875 2399.10009765625 2369.169921875 2376.3701171875 2335.7900390625 2284.389892578125 2279.051025390625 2310.319091796875 2366.029052734375 2446.77099609375 2504 2537.159912109375 2539.02001953125 2553.6201171875 2579.469970703125 2636.091064453125 2726.318115234375 2736.10107421875 2717.339111328125 2666.05908203125 2636.80908203125 2612.091064453125 2573.40087890625 2593.4580078125 2651.27197265625 2662.239990234375 2687.429931640625 2691.798095703125 2767.14892578125 2834.448974609375 2929.049072265625 3068.591064453125 3137.39990234375 3198.388916015625 3160.0390625 3155.43994140625 3160.65087890625 3202.258056640625 3225.52099609375 3302.592041015625 3280.610107421875 3235.02001953125 3200.39990234375 3179.65087890625 3159.77001953125 3139.2109375 3123.090087890625 3096.389892578125 3081.65087890625 3065.39892578125 3020.62890625
2739.23193359375 2732.989990234375 2727.638916015625 2705.672119140625 2683.4130859375 2668.739013671875 2669.992919921875 2638.322021484375 2614.305908203125 2603.287109375 2602.597900390625 2668.48291015625 2690.759033203125 2717.343994140625 2767.81298828125 2817.742919921875 2869.56201171875 2932.867919921875 2989.7470703125 3008.863037109375 3040.030029296875 2964.053955078125 2907.873046875 2886.761962890625 2883.908935546875 2852.531005859375 -9999 -9999 -9999 2826.300048828125 2850.14208984375 2917.159912109375 2958.632080078125 2960.867919921875 2985.300048828125 2950.178955078125 2925.23193359375 2923.501953125 2978.3310546875 2999.39208984375 2964.550048828125 2942.35888671875 2951.412109375 2962.361083984375 2884.718017578125 2859.580078125 2896.360107421875 2917.950927734375 2909.280029296875 2894.720947265625 2839.489013671875 2801.159912109375 2772.718994140625 2728.51904296875 2732.9189453125 2715.510009765625 2682.75 2659.638916015625 2633.659912109375 2592.47998046875 2550.139892578125 2557.18994140625 2584.841064453125 2575.9599609375 2568.169921875 2594.781005859375 2617.6689453125 2582.85888671875 2551.089111328125 2554.3701171875 2624.97998046875 2715.12109375 2810.52099609375 2758.12890625 2708 2683.969970703125 2668.509033203125 2652.801025390625 2631.81005859375 2601.450927734375 2551.280029296875 2505.27099609375 2479.989990234375 2446.239990234375 2434.570068359375 2428.5810546875 2410.968994140625 2393.240966796875 2341.6298828125 2321.198974609375 2340.84912109375 2363.530029296875 2440.62890625 2497.56103515625 2549.43896484375 2593.799072265625 2632.72998046875 2627.208984375 2637.15087890625 2697.31005859375 2780.43798828125 2740.23095703125 2693.740966796875 2663.7109375 2647.12890625 2652.69189453125 2673.910888671875 2655.5390625 2695.801025390625 2704.85009765625 2702.260009765625 2717.550048828125 2734.7900390625 2790.9189453125 2877.3779296875 3045.30810546875 3128.881103515625 3122.52001953125 3104.159912109375 3111.55908203125 3133.031005859375 3146.62890625 3172.06005859375 3222.580078125 3290.06005859375 3221.62890625 3188.7509765625 3167.908935546875 3146.1689453125 3124.489990234375 3096.291015625 3065.638916015625 3072.2099609375 3035.5 2995.868896484375
2774.39111328125 2759.946044921875 2734.35888671875 2705.742919921875 2686.22998046875 2676.7119140625 2675.81103515625 2672.677001953125 2669.384033203125 2663.132080078125 2655.847900390625 2686.3798828125 2713.5390625 2733.30810546875 2792.719970703125 2841.944091796875 2858.1279296875 2879.787109375 2959.922119140625 3030.318115234375 3048.506103515625 2964.10693359375 2897.47998046875 2854.242919921875 2827.509033203125 -9999 -9999 -9999 -9999 -9999 2794.14111328125 2814.56103515625 2847.041015625 2920.861083984375 2926.031005859375 2904.840087890625 2885.839111328125 2875.14111328125 2904.529052734375 3064.291015625 3074.08203125 3052.448974609375 3051.458984375 2991.381103515625 2940.587890625 2947.677978515625 2970.39892578125 2967.2099609375 2911.157958984375 2879.948974609375 2842.551025390625 2798.7900390625 2764.930908203125 2754.050048828125 2743.739990234375 2744.169921875 2694.541015625 2659.06005859375 2626.958984375 2588.72998046875 2603.2490234375 2611.80908203125 2607.281005859375 2606.26904296875 2610.23095703125 2634.02001953125 2669.930908203125 2603.18896484375 2563.820068359375 2581.031005859375 2647.279052734375 2733.550048828125 2827.27001953125 2769.800048828125 2715.530029296875 2658.009033203125 2637.5 2611.43994140625 2577.97998046875 2543.220947265625 2534.64892578125 2498.169921875 2464.240966796875 2456.281005859375 2453.409912109375 2448.3701171875 2463.091064453125 2405.969970703125 2370.699951171875 2385.830078125 2407.30908203125 2446.321044921875 2514.22998046875 2543.549072265625 2615.550048828125 2664.659912109375 2703.260009765625 2774.3701171875 2750.429931640625 2756.718994140625 2800.070068359375 2758.680908203125 2718.368896484375 2680.43994140625 2680.3701171875 2707.1201171875 2744.4208984375 2728.1279296875 2732.3720703125 2738.22998046875 2732.09912109375 2738.468994140625 2747.81005859375 2766.458984375 2895.738037109375 2978.097900390625 3077.2890625 3064.550048828125 3054.81005859375 3078.10009765625 3100.239990234375 3121.279052734375 3148.200927734375 3172.89111328125 3267.580078125 3210.60009765625 3177.429931640625 3153.069091796875 3128.4189453125 3107.800048828125 3085.669921875 3059.77001953125 3037.719970703125 3010.7900390625 2974.47900390625
2794.760009765625 2768.572021484375 2758.85107421875 2726.137939453125 2713.68896484375 2712.452880859375 2714.89892578125 2707.52587890625 2689.452880859375 2687.634033203125 2714.889892578125 2744.654052734375 2781.7900390625 2788.587890625 2832.81396484375 2904.403076171875 2913.091064453125 2877.781982421875 2918.592041015625 2996.069091796875 2996.907958984375 2955.339111328125 2911.783935546875 2860.343994140625 -9999 -9999 -9999 -9999 -9999 -9999 -9999 -9999 -9999 -9999 2880.14794921875 2869.44091796875 2871.490966796875 2859.798095703125 2865.678955078125 2945.0419921875 3003.659912109375 2976.447998046875 2959.97998046875 2991.321044921875 3034.3310546875 3031.862060546875 3037.947998046875 2957.9580078125 2885.662109375 2852.179931640625 2829.85009765625 2812.658935546875 2793.1201171875 2761.169921875 2742.47998046875 2746.340087890625 2702.2109375 2655.428955078125 2617.760009765625 2616.300048828125 2620.52001953125 2636.510009765625 2664.60009765625 2667.700927734375 2668.949951171875 2689.531005859375 2670.6298828125 2610.81005859375 2601.569091796875 2637.47998046875 2681.929931640625 2730.430908203125 2821.62109375 2842.469970703125 2759.8291015625 2661.72998046875 2600.4609375 2575.64111328125 2558.719970703125 2554.5400390625 2519.60009765625 2514.760009765625 2499.381103515625 2488.881103515625 2475.93994140625 2463.541015625 2469.031005859375 2426.429931640625 2415.18994140625 2429.43994140625 2484.909912109375 2525.0400390625 2568.949951171875 2609.169921875 2688.43994140625 2732.570068359375 2794.4990234375 2856.1201171875 2825.60107421875 2801.341064453125 2814.087890625 2777.14990234375 2754.238037109375 2752.1279296875 2752.6201171875 2771.760009765625 2810.198974609375 2775.97998046875 2769.469970703125 2749.81103515625 2749.490966796875 2749.9990234375 2758.112060546875 2764.117919921875 2841.157958984375 2982.8798828125 3067.881103515625 3049.342041015625 3052.80908203125 3067.842041015625 3074.64794921875 3107.6201171875 3132.91796875 3150.830078125 3246.85107421875 3216.571044921875 3165.819091796875 3138.570068359375 3115.669921875 3098.68994140625 3083.919921875 3063.909912109375 3044.39892578125 3020.7099609375 2993.98095703125
2845.176025390625 2791.430908203125 2777.631103515625 2752.547119140625 2760.572998046875 2748.60888671875 2747.637939453125 2757.43798828125 2753.950927734375 2747.62890625 2775.60888671875 2822.739990234375 2881.1640625 2871.302001953125 2919.712890625 2986.10888671875 2971.60302734375 2971.506103515625 2957.81103515625 2916.508056640625 2908.136962890625 2919.987060546875 2953.9970703125 -9999 -9999 -9999 -9999 -9999 -9999 -9999 -9999 -9999 -9999 -9999 -9999 -9999 -9999 -9999 2829.048095703125 2914.66796875 2929.201904296875 2922.2890625 2883.178955078125 2918.760009765625 2990 2979.98095703125 2964.569091796875 2947.491943359375 2895.740966796875 2842.180908203125 2817.2890625 2796.1708984375 2792.198974609375 2771.948974609375 2757.589111328125 2740.780029296875 2717.14990234375 2672.89111328125 2651.720947265625 2665.739013671875 2657.990966796875 2677.55908203125 2704.889892578125 2704.169921875 2705.968994140625 2691.368896484375 2652.861083984375 2624.449951171875 2626.35888671875 2640.72998046875 2682.989990234375 2734.908935546875 2843.860107421875 2794.85107421875 2738.5009765625 2657.409912109375 2615.321044921875 2589.279052734375 2588.4599609375 2563.071044921875 2553.429931640625 2566.220947265625 2544.60009765625 2534.510009765625 2501.7900390625 2494.6201171875 2480.14892578125 2440.659912109375 2444.510009765625 2479 2535.388916015625 2565.47998046875 2620.779052734375 2661.23095703125 2763.419921875 2842.7099609375 2911.39990234375 2940.281005859375 2871.62109375 2844.180908203125 2821.44091796875 2812.041015625 2807.071044921875 2806.7900390625 2823.7109375 2823.468994140625 2812.968994140625 2787.489990234375 2787.989990234375 2778.428955078125 2763.84912109375 2764.3720703125 2768.2919921875 2767.3291015625 2848.260986328125 2986.16796875 3052.68798828125 3044.52099609375 3042.69091796875 3051.050048828125 3057.02197265625 3088.22998046875 3113.910888671875 3120.12890625 3237.7509765625 3249.68896484375 3166.3701171875 3141.658935546875 3114.041015625 3101.510986328125 3085.300048828125 3065.699951171875 3049.041015625 3029.760986328125 3011.0810546875
2887.592041015625 2852.27392578125 2805.469970703125 2806.97998046875 2834.7041015625 2842.10302734375 2821.741943359375 2830.56298828125 2852.37109375 2828.841064453125 2864.37109375 2907.881103515625 2867.60205078125 2912.242919921875 2939.54296875 2994.576904296875 2982.00390625 2941.777099609375 2896.81005859375 2860.0791015625 2844.416015625 2842.174072265625 -9999 -9999 -9999 -9999 -9999 -9999 -9999 -9999 -9999 -9999 -9999 -9999 -9999 -9999 -9999 -9999 -9999 -9999 -9999 -9999 2824.1708984375 2862.3779296875 2962.708984375 2953.889892578125 2920.85205078125 2938.580078125 2926.050048828125 2860.739990234375 2846.12890625 2836.610107421875 2826.76904296875 2826.81103515625 2805.18994140625 2810.8701171875 2748.320068359375 2711.678955078125 2711.208984375 2697.98095703125 2706.319091796875 2719.821044921875 2771.300048828125 2716.830078125 2710.56005859375 2700.3798828125 2660.428955078125 2646.6689453125 2644.138916015625 2646.330078125 2688.031005859375 2754.071044921875 2850.87890625 2819.821044921875 2744.760009765625 2688.93994140625 2652.239990234375 2651.81103515625 2632.60009765625 2606.89990234375 2609.22998046875 2596.339111328125 2576.2099609375 2560.610107421875 2533.070068359375 2512.35107421875 2481.138916015625 2448.48095703125 2455.139892578125 2513.909912109375 2556.580078125 2597.639892578125 2652.25 2714.030029296875 2843.47998046875 2924.010009765625 2949.178955078125 2877.31005859375 2861.64990234375 2839.991943359375 2836.041015625 2840.970947265625 2832.998046875 2862.318115234375 2848.089111328125 2839.590087890625 2805.93994140625 2797.589111328125 2796.97998046875 2782.822021484375 2770.839111328125 2771.739990234375 2773.72900390625 2774.59912109375 2875.569091796875 3089.89208984375 3019.587890625 3026.239013671875 3028.322021484375 3038.637939453125 3049.049072265625 3076.860107421875 3105.368896484375 3118.719970703125 3220.430908203125 3209.990966796875 3177.118896484375 3153.97900390625 3115.2509765625 3099.860107421875 3085.780029296875 3070.208984375 3052.64990234375 3033.070068359375 3013.610107421875
2935.137939453125 2907.926025390625 2886.62890625 2865.298095703125 2860.52099609375 2891.238037109375 2878.69189453125 2856.2919921875 2858.533935546875 2857.553955078125 2861.8720703125 2878.85888671875 2889.5869140625 2892.7919921875 2912.5869140625 2944.89404296875 2933.73388671875 2887.343994140625 2858.7900390625 2837.27294921875 2838.3330078125 -9999 -9999 -9999 -9999 -9999 -9999 -9999 -9999 -9999 -9999 -9999 -9999 -9999 -9999 -9999 -9999 -9999 -9999 -9999 -9999 -9999 -9999 -9999 -9999 2910.861083984375 2891.719970703125 2883.10009765625 2950.708984375 2915.968994140625 2897.280029296875 2891.3798828125 2893.51904296875 2909.2509765625 2943.89990234375 2849.989013671875 2774.1298828125 2757.708984375 2742.569091796875 2741.069091796875 2744.18896484375 2791.908935546875 2778.47998046875 2731.909912109375 2732.660888671875 2721.87890625 2674.27099609375 2663.93994140625 2653.68994140625 2657.930908203125 2706.569091796875 2784.2490234375 2807.89990234375 2756.678955078125 2732.321044921875 2720.77001953125 2707.659912109375 2705.889892578125 2661.820068359375 2642.089111328125 2630.198974609375 2615.861083984375 2586.030029296875 2582.30908203125 2562.658935546875 2535.85888671875 2498.408935546875 2480.320068359375 2500.698974609375 2556.090087890625 2584.840087890625 2623.031005859375 2688.198974609375 2787.888916015625 2865.14990234375 2958.010009765625 2896.62109375 2881.75 2871.330078125 2857.239990234375 2855.9599609375 2851.510009765625 2856.408935546875 2872.708984375 2853.389892578125 2819.799072265625 2814.56005859375 2809.6298828125 2800.919921875 2791.781005859375 2784.842041015625 2783.281982421875 2780.590087890625 2784.35791015625 2917.90087890625 3050.4609375 3006.708984375 3008.550048828125 3016.72900390625 3031.4189453125 3041.572021484375 3066.58203125 3111.508056640625 3149.37109375 3175.888916015625 3234.138916015625 3200.340087890625 3178.7900390625 3127.739990234375 3100.590087890625 3086.85009765625 3071.840087890625 3056.200927734375 3039.85107421875 3021.85888671875
2894.134033203125 2885.993896484375 2808.992919921875 2802.85595703125 2812.656982421875 2814.6259765625 2800.260986328125 2776.25390625 2770.9208984375 2776.76611328125 2805.072998046875 2839.23291015625 2834.65087890625 2817.910888671875 2852.388916015625 2883.989013671875 2895.468017578125 2878.904052734375 -9999 -9999 -9999 -9999 -9999 -9999 -9999 -9999 -9999 -9999 -9999 -9999 -9999 -9999 -9999 -9999 -9999 -9999 -9999 -9999 -9999 -9999 -9999 -9999 -9999 -9999 -9999 -9999 2842.010009765625 2858.77099609375 2944.251953125 3013.389892578125 3003.64111328125 2973.39990234375 2995.050048828125 3016.6708984375 2957.029052734375 2848.59912109375 2820.12109375 2793.2890625 2769.468994140625 2770.81005859375 2819.279052734375 2823.928955078125 2769.5400390625 2749.820068359375 2747.0810546875 2711.569091796875 2695.468994140625 2691.14990234375 2681.049072265625 2686.75 2720.449951171875 2787.388916015625 2807.15087890625 2763.699951171875 2734.700927734375 2717.428955078125 2712.830078125 2696.51904296875 2673.7099609375 2663.10888671875 2656.569091796875 2646.010009765625 2616.638916015625 2609.300048828125 2591.368896484375 2575.60009765625 2543.090087890625 2539.409912109375 2520.77001953125 2562.60107421875 2626.72998046875 2637.429931640625 2722.9208984375 2819.0810546875 2899.37890625 2892.301025390625 2875.408935546875 2885.070068359375 2879.090087890625 2870.087890625 2860.64892578125 2849.449951171875 2833.131103515625 2819.779052734375 2819.618896484375 2823.590087890625 2820.679931640625 2814.27099609375 2806.43896484375 2805.25 2803.01904296875 2797.37109375 2792.72900390625 2808.300048828125 2988.64892578125 3000.19091796875 2973.47998046875 2995.791015625 3003.089111328125 3017.412109375 3026.58203125 3036.679931640625 3121.81005859375 3169.02197265625 3193.93896484375 3245.14990234375 3253.861083984375 3233.611083984375 3183.2099609375 3139.199951171875 3099.360107421875 3077.22998046875 3058.02001953125 3042.75 3026.071044921875
2847.576904296875 2840.3369140625 2767.8310546875 2753.35888671875 2733.47607421875 2737.343017578125 2716.77099609375 2718.360107421875 2734.43798828125 2751.125 -9999 -9999 -9999 -9999 -9999 -9999 -9999 -9999 -9999 -9999 -9999 -9999 -9999 -9999 -9999 -9999 -9999 -9999 -9999 -9999 -9999 -9999 -9999 -9999 -9999 -9999 -9999 -9999 -9999 -9999 -9999 -9999 -9999 -9999 -9999 -9999 -9999 2852.52197265625 2935.39892578125 3003.7900390625 3072.919921875 3070.75 3084.800048828125 3024.780029296875 2958.739990234375 2893.81103515625 2907.659912109375 2837.469970703125 2802.158935546875 2827.989990234375 2867.669921875 2800.669921875 2758.968994140625 2746.760009765625 2735.9990234375 2713.330078125 2718.841064453125 2715.449951171875 2709.638916015625 2722.080078125 2744.051025390625 2851.2099609375 2852.780029296875 2789.531005859375 2758.429931640625 2723.158935546875 2720.860107421875 2705.239990234375 2689.908935546875 2689.02099609375 2674.860107421875 2670.708984375 2653.320068359375 2643.94091796875 2635.260986328125 2625.948974609375 2621.909912109375 2591.60107421875 2557.780029296875 2591.9609375 2644.669921875 2668.529052734375 2700.39990234375 2772.470947265625 2860.469970703125 2862.041015625 2884.12109375 2889.52001953125 2886.35888671875 2879.991943359375 2872.4208984375 2861.300048828125 2846.8291015625 2832.178955078125 2823.7890625 2821.4990234375 2817.552001953125 2814.31103515625 2812.39208984375 2817.001953125 2817.361083984375 2810.031982421875 2808.830078125 2844.072021484375 2902.779052734375 2933.9208984375 2970.971923828125 2986.590087890625 2991.302001953125 3002.39111328125 3016.0390625 3039.590087890625 3166.10009765625 3201.43896484375 3220.410888671875 3246.3798828125 3315.3798828125 3251.791015625 3213.089111328125 3182.85009765625 3140.368896484375 3104.18994140625 3075.60009765625 3047.9208984375 3033.698974609375
2810.114013671875 -9999 -9999 -9999 -9999 -9999 -9999 -9999 -9999 -9999 -9999 -9999 -9999 -9999 -9999 -9999 -9999 -9999 -9999 -9999 -9999 -9999 -9999 -9999 -9999 -9999 -9999 -9999 -9999 -9999 -9999 -9999 -9999 -9999 -9999 -9999 -9999 -9999 -9999 -9999 -9999 -9999 -9999 -9999 -9999 -9999 -9999 -9999 2867.761962890625 2914.469970703125 3011.2099609375 3073.410888671875 3036.631103515625 3001.60888671875 2927.700927734375 2899.27001953125 2904.62890625 2874.760986328125 2856.68994140625 2885.448974609375 2840.62890625 2783.69091796875 2756.4208984375 2752.680908203125 2731.3310546875 2731.89892578125 2737.85888671875 2737.699951171875 2741.069091796875 2741.470947265625 2767.610107421875 2889.549072265625 2852.409912109375 2806.18896484375 2755.780029296875 2748.60009765625 2744.39990234375 2730.010009765625 2712.3798828125 2705.341064453125 2693.65087890625 2702.68994140625 2699.97900390625 2693.87109375 2682.791015625 2688.950927734375 2713.43994140625 2638.780029296875 2602.821044921875 2642.97998046875 2677.93994140625 2726.5 2747.56103515625 2821.37109375 2862.958984375 2882.051025390625 2889.381103515625 2895.791015625 2895.8798828125 2891.77099609375 2885.90087890625 2878.177978515625 2861.927978515625 2845.68994140625 2831.2900390625 2822.84912109375 2818.7099609375 2816.221923828125 2822.572021484375 2826.889892578125 2827.06201171875 2818.422119140625 2816.3310546875 2861.2109375 2910.39990234375 2942.200927734375 2965.589111328125 2979.458984375 2990.220947265625 3002.327880859375 3021.9208984375 3056.632080078125 3165.531005859375 3218.110107421875 3242.09912109375 3288.2900390625 3382.8310546875 3318.638916015625 3261.62109375 3246.580078125 3226.62109375 3155.301025390625 3124.35107421875 3120.7509765625 3079.470947265625
-9999 -9999 -9999 -9999 -9999 -9999 -9999 -9999 -9999 -9999 -9999 -9999 -9999 -9999 -9999 -9999 -9999 -9999 -9999 -9999 -9999 -9999 -9999 -9999 -9999 -9999 -9999 -9999 -9999 -9999 -9999 -9999 -9999 -9999 -9999 -9999 -9999 -9999 -9999 -9999 -9999 -9999 -9999 -9999 -9999 -9999 -9999 -9999 2872.968994140625 2929.5810546875 3018.111083984375 3031.759033203125 2979.529052734375 2972.571044921875 2985.77001953125 2955.930908203125 2978.77001953125 2943.631103515625 2891.160888671875 2846.6298828125 2820.139892578125 2808.069091796875 2777.10107421875 2751.090087890625 2743.658935546875 2751.949951171875 2765.410888671875 2771.5400390625 2766.970947265625 2762.679931640625 2797.260986328125 2915.800048828125 2877.43994140625 2823.10009765625 2763.580078125 2775.1298828125 2762.679931640625 2755.62890625 2734.791015625 2721.64990234375 2746.319091796875 2756.3310546875 2754.821044921875 2748.070068359375 2745.760986328125 2763.97998046875 2720.85107421875 2664.409912109375 2657.9599609375 2690.571044921875 2769.968994140625 2816.34912109375 2838.281005859375 2866.740966796875 2893.200927734375 2896.589111328125 2899.489990234375 2905.93994140625 2908.070068359375 2905.092041015625 2901.35888671875 2898.47998046875 2891.751953125 2877.4599609375 2858.409912109375 2840.35791015625 2833.699951171875 2830.56005859375 2835.760009765625 2835.64990234375 2833.759033203125 2823.62109375 2842.23095703125 2889.31005859375 2912.281005859375 2934.368896484375 2962.05908203125 2977.22802734375 2988.080078125 3002.160888671875 3021.7880859375 3103.80908203125 3205.781005859375 3259.510009765625 3293.989013671875 3374.60009765625 3401.489990234375 3306.89990234375 3265.388916015625 3238.12890625 3250.87890625 3258.139892578125 3241.340087890625 3221.458984375 3206.679931640625
-9999 -9999 -9999 -9999 -9999 -9999 -9999 -9999 -9999 -9999 -9999 -9999 -9999 -9999 -9999 -9999 -9999 -9999 -9999 -9999 -9999 -9999 -9999 -9999 -9999 -9999 -9999 -9999 -9999 -9999 -9999 -9999 -9999 -9999 -9999 -9999 -9999 -9999 -9999 -9999 -9999 -9999 -9999 -9999 -9999 -9999 -9999 -9999 2921.0009765625 2966.9189453125 3044.97900390625 3006.291015625 2949.660888671875 2925.8310546875 2919.5009765625 2918.8798828125 2918.841064453125 2894.89111328125 2867.4189453125 2847.43896484375 2816.218994140625 2781.5400390625 2780.660888671875 2771.81103515625 2772.051025390625 2784.65087890625 2792.409912109375 2795.158935546875 2790.5791015625 2780.37890625 2825.4599609375 2963.23095703125 2923.77001953125 2861.569091796875 2807.31005859375 2812.3310546875 2788.841064453125 2767.408935546875 2773.7490234375 2788.56005859375 2805.43994140625 2807.510009765625 2810.429931640625 2822.27099609375 2834.800048828125 2823.070068359375 2751.111083984375 2712.14892578125 2721.68994140625 2759.301025390625 2829.669921875 2883.360107421875 2910.570068359375 2905.2099609375 2910.490966796875 2914.1689453125 2914.381103515625 2917.889892578125 2919.260009765625 2916.699951171875 2913.989013671875 2911.199951171875 2909.35107421875 2896.35791015625 2887.80908203125 2870.6689453125 2866.409912109375 2855.27001953125 2850.35888671875 2844.39892578125 2840.550048828125 2831.60205078125 2866.800048828125 2892.279052734375 2911.14892578125 2940.4619140625 2967.2119140625 2982.949951171875 2996.39208984375 3019.81103515625 3060.77001953125 3167.029052734375 3249.7080078125 3334.669921875 3378.76904296875 3417.8798828125 3358.180908203125 3275.2890625 3216.25 3179.87890625 3162.259033203125 3175.3291015625 3231.35009765625 3275.64990234375 3279.06005859375
-9999 -9999 -9999 -9999 -9999 -9999 -9999 -9999 -9999 -9999 -9999 -9999 -9999 -9999 -9999 -9999 -9999 -9999 -9999 -9999 -9999 -9999 -9999 -9999 -9999 -9999 -9999 -9999 -9999 -9999 -9999 -9999 -9999 -9999 -9999 -9999 -9999 -9999 -9999 -9999 -9999 -9999 -9999 -9999 -9999 -9999 -9999 -9999 3002.3720703125 3029.550048828125 3099.291015625 3019.409912109375 2972.909912109375 2942.291015625 2911.910888671875 2895.469970703125 2886.700927734375 2864.64990234375 2843.43994140625 2816.889892578125 2802.659912109375 2801.02001953125 2799.580078125 2789.14990234375 2790.638916015625 2801.138916015625 2809.158935546875 2813.23095703125 2807.179931640625 2802.409912109375 2921.590087890625 2968.02001953125 2965.25 2865.05908203125 2851.3701171875 2831.7900390625 2820.708984375 2822.840087890625 2857.2900390625 2879.7109375 2882.2900390625 2863.489990234375 2873.68994140625 2910.360107421875 2903.7099609375 2868.509033203125 2789.820068359375 2779.9599609375 2793.93896484375 2833.110107421875 2884.989013671875 2909.18994140625 2923.551025390625 2925.0810546875 2929.388916015625 2932.321044921875 2929.610107421875 2928.35009765625 2927.531005859375 2924.162109375 2921.131103515625 2916.5791015625 2911.18798828125 2904.612060546875 2897.3798828125 2883.35009765625 2878.342041015625 2870.157958984375 2861.12890625 2855.2900390625 2848.612060546875 2846.118896484375 2881.4189453125 2904.589111328125 2933.2890625 2959.66796875 2980.968994140625 2999.3720703125 3014.930908203125 3046.498046875 3110.0419921875 3194.14892578125 3291.070068359375 3382.260009765625 3448.319091796875 3390.60888671875 3362.361083984375 3308.840087890625 3226.280029296875 3158.138916015625 3138.10009765625 3120.77099609375 3113.89990234375 3146.159912109375 3203.989013671875
-9999 -9999 -9999 -9999 -9999 -9999 -9999 -9999 -9999 -9999 -9999 -9999 -9999 -9999 -9999 -9999 -9999 -9999 -9999 -9999 -9999 -9999 -9999 -9999 -9999 -9999 -9999 -9999 -9999 -9999 -9999 -9999 -9999 -9999 -9999 -9999 -9999 -9999 -9999 -9999 -9999 -9999 -9999 -9999 -9999 -9999 -9999 -9999 3106.008056640625 3115.070068359375 3038.509033203125 3009.799072265625 2989.14990234375 2972.89892578125 2944.84912109375 2917.5810546875 2877.591064453125 2854.60107421875 2832.81005859375 2826.381103515625 2824.7509765625 2820.48095703125 2812.22900390625 2806.0791015625 2804.31103515625 2813.361083984375 2821.110107421875 2832.660888671875 2826.56103515625 2845.659912109375 2943.62109375 3036.861083984375 2945.279052734375 2893.091064453125 2890.489990234375 2871.8701171875 2877.5400390625 2890.591064453125 2913.919921875 2939.25 2950.56005859375 2934.2490234375 2939.541015625 2975.22998046875 2968.530029296875 2921.208984375 2866.570068359375 2858.199951171875 2869.408935546875 2894.090087890625 2919.801025390625 2935.0791015625 2941.010009765625 2941.470947265625 2942.1298828125 2944.319091796875 2941.381103515625 2936.60888671875 2931.300048828125 2926.887939453125 2921.77099609375 2915.958984375 2910.200927734375 2903.94091796875 2896.300048828125 2888.7490234375 2881.489990234375 2873.18896484375 2869.260986328125 2867.549072265625 2859.93896484375 2887.928955078125 2940.758056640625 2956.001953125 2973.30810546875 3005.35888671875 3023.052001953125 3040.408935546875 3059.77197265625 3095.39892578125 3164.4580078125 3280.22998046875 3335.64892578125 3444.541015625 3461.571044921875 3363.4609375 3341.60009765625 3321.52001953125 3244.7900390625 3151.659912109375 3122.330078125 3100.639892578125 3084.72900390625 3083.239013671875 3106.909912109375
-9999 -9999 -9999 -9999 -9999 -9999 -9999 -9999 -9999 -9999 -9999 -9999 -9999 -9999 -9999 -9999 -9999 -9999 -9999 -9999 -9999 -9999 -9999 -9999 -9999 -9999 -9999 -9999 -9999 -9999 -9999 -9999 -9999 -9999 -9999 -9999 -9999 -9999 -9999 -9999 -9999 -9999 -9999 -9999 -9999 -9999 -9999 3069.860107421875 3116.23193359375 3070.89111328125 3033.43896484375 3002.801025390625 2987.470947265625 2976.759033203125 2946.3798828125 2906.678955078125 2887.9609375 2862.64892578125 2844.39990234375 2843.3310546875 2840.430908203125 2831.39892578125 2822.291015625 2817.510009765625 2813.549072265625 2824.4189453125 2839.81005859375 2857.9599609375 2858.97900390625 2887.2490234375 2953.510009765625 3008.839111328125 2996.05908203125 2943.9990234375 2931.3310546875 2924.198974609375 2938.510009765625 2982.669921875 2983.050048828125 3012.1689453125 3034.780029296875 3019.02001953125 3014.409912109375 3015.43994140625 2991.541015625 2951.4599609375 2924.5791015625 2917.719970703125 2921.531005859375 2933.550048828125 2947.010009765625 2955.02001953125 2956.070068359375 2953.77099609375 2949.43994140625 2949.2099609375 2946.159912109375 2940.419921875 2933.919921875 2927.922119140625 2921.64208984375 2916.55908203125 2911.321044921875 2905.299072265625 2899.15087890625 2892.041015625 2883.050048828125 2876.64892578125 2875.132080078125 2876.781982421875 2884.528076171875 2941.011962890625 3029.5390625 3041.541015625 3058.7109375 3074.718994140625 3080.281005859375 3090.72998046875 3117.7880859375 3171.408935546875 3229.6279296875 3312.077880859375 3396.469970703125 3457.368896484375 3462.050048828125 3346.158935546875 3320.639892578125 3296.7900390625 3250.5810546875 3173.68896484375 3113.02001953125 3090.301025390625 3070.968994140625 3052.47998046875 3045.799072265625
-9999 -9999 -9999 -9999 -9999 -9999 -9999 -9999 -9999 -9999 -9999 -9999 -9999 -9999 -9999 -9999 -9999 -9999 -9999 -9999 -9999 -9999 -9999 -9999 -9999 -9999 -9999 -9999 -9999 -9999 -9999 -9999 -9999 -9999 -9999 -9999 -9999 -9999 -9999 -9999 -9999 -9999 -9999 -9999 -9999 -9999 -9999 3048.887939453125 3054.341064453125 3110.2109375 3069.448974609375 3035.90087890625 2972.468994140625 2964.208984375 2925.5 2906.428955078125 2870.361083984375 2861.580078125 2858.860107421875 2858.35107421875 2851.090087890625 2839.12890625 2835.830078125 2832.68994140625 2830.301025390625 2836.89892578125 2861.361083984375 2886.35888671875 2881.72998046875 2905.638916015625 2939.069091796875 2965.739990234375 3006.428955078125 3003.821044921875 2986.81005859375 2990.3798828125 3016.90087890625 3060.300048828125 3075.199951171875 3069.580078125 3060.1201171875 3062.3701171875 3037.679931640625 3017.9599609375 3001.55908203125 2980.31005859375 2964.300048828125 2960.18896484375 2959.469970703125 2962.6298828125 2966.958984375 2967.97998046875 2964.639892578125 2958 2950.531005859375 2948.8798828125 2946.919921875 2942.031005859375 2936.010009765625 2929.43896484375 2924.219970703125 2918.510009765625 2912.780029296875 2908.118896484375 2903.85888671875 2897.680908203125 2889.77099609375 2883.177978515625 2878.7080078125 2885.090087890625 2906.25 3015.43798828125 3085.678955078125 3098.9599609375 3145.010009765625 3150.530029296875 3157.51904296875 3174.1708984375 3181.85888671875 3237.35888671875 3314.18798828125 3386.922119140625 3412.739990234375 3440.7099609375 3455.660888671875 3350.18896484375 3293.77001953125 3273.840087890625 3245.179931640625 3201.090087890625 3123.138916015625 3090.3701171875 3063.1298828125 3042.580078125 3030.321044921875
-9999 -9999 -9999 -9999 -9999 -9999 -9999 -9999 -9999 -9999 -9999 -9999 -9999 -9999 -9999 -9999 -9999 -9999 -9999 -9999 -9999 -9999 -9999 -9999 -9999 -9999 -9999 -9999 -9999 -9999 -9999 -9999 -9999 -9999 -9999 -9999 -9999 -9999 -9999 -9999 -9999 -9999 -9999 -9999 -9999 -9999 -9999 2957.0419921875 3074.612060546875 3101.051025390625 3057.3291015625 3032.35888671875 2963.18896484375 2943.158935546875 2924.5810546875 2886.2109375 2884.64111328125 2880.541015625 2877.4189453125 2871.0400390625 2860.299072265625 2851.799072265625 2850.321044921875 2851.93994140625 2851.841064453125 2854.301025390625 2885.110107421875 2891.860107421875 2898.87109375 2905.43994140625 2941.81103515625 2983.638916015625 3007.889892578125 3095.861083984375 3060.18994140625 3057.68994140625 3091.659912109375 3105.10107421875 3090.25 3074.93896484375 3062.97900390625 3053.6201171875 3042.25 3029.529052734375 3012.77001953125 3000.429931640625 2990.2900390625 2985.570068359375 2985.85107421875 2983.40087890625 2980.35009765625 2978.010009765625 2972.051025390625 2963.4990234375 2955.9599609375 2952.75 2948.699951171875 2943.030029296875 2936.97998046875 2931.3701171875 2925.3779296875 2920.35107421875 2916.469970703125 2911.2509765625 2908.77001953125 2905.279052734375 2903.590087890625 2901.760986328125 2895.7109375 2908.302001953125 2970.258056640625 3010.0009765625 3031.278076171875 3057.5009765625 3093.2890625 3189.12890625 3256.839111328125 3268.989013671875 3272.30810546875 3312.531005859375 3308.27099609375 3334.22900390625 3368.2890625 3396.7509765625 3408.97900390625 3358.12890625 3274.530029296875 3246.968994140625 3228.159912109375 3194.908935546875 3151.740966796875 3099.27099609375 3060.780029296875 3038.410888671875 3027.958984375
-9999 -9999 -9999 -9999 -9999 -9999 -9999 -9999 -9999 -9999 -9999 -9999 -9999 -9999 -9999 -9999 -9999 -9999 -9999 -9999 -9999 -9999 -9999 -9999 -9999 -9999 -9999 -9999 -9999 -9999 -9999 -9999 -9999 -9999 -9999 -9999 -9999 -9999 -9999 -9999 -9999 -9999 -9999 -9999 -9999 -9999 -9999 2980.3720703125 3068.827880859375 3057.819091796875 3023.8798828125 2986.1298828125 2952.239990234375 2932.30908203125 2912.631103515625 2907.780029296875 2900.72998046875 2896.718994140625 2891.160888671875 2883 2874.7509765625 2869.10888671875 2870.410888671875 2872.489990234375 2877.139892578125 2894.198974609375 2908.72900390625 2910.429931640625 2913.389892578125 2913.48095703125 2978.64990234375 3044.051025390625 3046.118896484375 3133.861083984375 3142 3143.35009765625 3139.93896484375 3123.949951171875 3100.5 3082.780029296875 3068.9189453125 3056.02099609375 3047.55908203125 3037.5 3022.3701171875 3012.2099609375 3004.31103515625 2998.739990234375 2994.260986328125 2988.090087890625 2984.919921875 2983.949951171875 2976.840087890625 2967.551025390625 2961.7890625 2957.43994140625 2951.080078125 2944.0810546875 2938.090087890625 2931.842041015625 2926.861083984375 2924.367919921875 2919.302001953125 2917.5 2912.550048828125 2912.837890625 2917.85009765625 2920 2929.4189453125 2965.740966796875 2988.180908203125 3008.72900390625 3026.30908203125 3051.178955078125 3094.280029296875 3180.77001953125 3256.85791015625 3320.19091796875 3301.422119140625 3290.948974609375 3292.778076171875 3305.77099609375 3327.9609375 3356.43896484375 3334.81005859375 3294.158935546875 3264.490966796875 3231.22900390625 3202.12109375 3178.68896484375 3147.490966796875 3108.31005859375 3062.760009765625 3037.408935546875 3025.219970703125
-9999 -9999 -9999 -9999 -9999 -9999 -9999 -9999 -9999 -9999 -9999 -9999 -9999 -9999 -9999 -9999 -9999 -9999 -9999 -9999 -9999 -9999 -9999 -9999 -9999 -9999 -9999 -9999 -9999 -9999 -9999 -9999 -9999 -9999 -9999 -9999 -9999 -9999 -9999 -9999 -9999 -9999 -9999 -9999 -9999 -9999 -9999 3048.31103515625 3150.009033203125 3076.22998046875 3014.300048828125 2971.80908203125 2938.408935546875 2931.050048828125 2932.60888671875 2922.02001953125 2914.551025390625 2908.080078125 2907.02099609375 2899.8798828125 2896.3798828125 2894.570068359375 2896.97998046875 2908.570068359375 2927.510009765625 2959.719970703125 2960.919921875 2955.02099609375 2939.821044921875 2968.549072265625 3045.9599609375 3073.37890625 3087.139892578125 3172.18994140625 3209.531005859375 3190.0400390625 3167.3798828125 3136.85888671875 3108.929931640625 3091.27099609375 3075.208984375 3058.958984375 3050.090087890625 3040.1708984375 3027.840087890625 3020.111083984375 3013.179931640625 3006.929931640625 3000.531005859375 2992.56005859375 2987.868896484375 2984.31005859375 2977.458984375 2969.89111328125 2966.14892578125 2961.06005859375 2953.989013671875 2947.1201171875 2939.1689453125 2932.94189453125 2930.85107421875 2927.1220703125 2924.322021484375 2923.549072265625 2920.4599609375 2922.64794921875 2925.5810546875 2924.68798828125 2940.4619140625 2972.64111328125 2989.25 3003.06201171875 3027.18994140625 3066.678955078125 3154.531005859375 3252.469970703125 3320.090087890625 3308.041015625 3302.2490234375 3298.052001953125 3300.430908203125 3307.919921875 3318.842041015625 3358.427978515625 3310.430908203125 3270.10107421875 3245.06103515625 3212.638916015625 3176.839111328125 3155.739990234375 3146.2900390625 3125.35009765625 3094.85107421875 3050.02001953125 3022.958984375
-9999 -9999 -9999 -9999 -9999 -9999 -9999 -9999 -9999 -9999 -9999 -9999 -9999 -9999 -9999 -9999 -9999 -9999 -9999 -9999 -9999 -9999 -9999 -9999 -9999 -9999 -9999 -9999 -9999 -9999 -9999 -9999 -9999 -9999 -9999 -9999 -9999 -9999 -9999 -9999 -9999 -9999 -9999 -9999 -9999 -9999 -9999 3116.4599609375 3195.928955078125 3162.158935546875 3065.72998046875 3005.5791015625 2973.55908203125 2969.09912109375 2954.949951171875 2936 2923.62890625 2921.989013671875 2923.85888671875 2923.699951171875 2922.2890625 2919.9208984375 2933.87890625 2962.31005859375 2986.708984375 3011.660888671875 3018.069091796875 3005.9990234375 2995.360107421875 3014.5400390625 3089.041015625 3116.051025390625 3142.2099609375 3194.7900390625 3246.208984375 3206.6689453125 3188.8701171875 3147.2099609375 3119.590087890625 3101.18994140625 3083.659912109375 3065.35107421875 3051.239990234375 3039.909912109375 3031.5400390625 3025.81005859375 3020.84912109375 3013.919921875 3006.159912109375 2997.881103515625 2991.909912109375 2985.25 2978.089111328125 2972.72998046875 2969.76904296875 2964.4189453125 2958.490966796875 2951.5 2942.551025390625 2937.5009765625 2935.83203125 2930.672119140625 2930.531005859375 2932.3798828125 2936.08203125 2938.23095703125 2933.510986328125 2933.9990234375 2950.131103515625 2992.490966796875 3005.4208984375 3014.989990234375 3067.748046875 3137.330078125 3223.7109375 3326.638916015625 3303.449951171875 3295.929931640625 3294.419921875 3295.18896484375 3299.4599609375 3307.2880859375 3315.8310546875 3327.489013671875 3293.530029296875 3258.419921875 3224.02001953125 3207.260009765625 3186.720947265625 3164.868896484375 3146.968994140625 3128.861083984375 3104.800048828125 3062.410888671875 3025.580078125
-9999 -9999 -9999 -9999 -9999 -9999 -9999 -9999 -9999 -9999 -9999 -9999 -9999 -9999 -9999 -9999 -9999 -9999 -9999 -9999 -9999 -9999 -9999 -9999 -9999 -9999 -9999 -9999 -9999 -9999 -9999 -9999 -9999 -9999 -9999 -9999 -9999 -9999 -9999 -9999 -9999 -9999 -9999 -9999 -9999 -9999 3000.89794921875 3074.72802734375 3158.697998046875 3185.48095703125 3100.3291015625 3047.541015625 3008.31005859375 2988 2971.989013671875 2956.291015625 2945.279052734375 2941.610107421875 2949.4990234375 2960.35888671875 2960.4189453125 2963.6689453125 2983.759033203125 3013.8701171875 3037.470947265625 3084.658935546875 3085.111083984375 3069.06005859375 3071.19091796875 3082.47900390625 3126.301025390625 3159.06103515625 3170.52099609375 3240.48095703125 3310.2099609375 3263.8701171875 3245.239990234375 3163.419921875 3131.47998046875 3107.18994140625 3093.320068359375 3077.31103515625 3055.9599609375 3041.740966796875 3034.780029296875 3030.301025390625 3026.010009765625 3018.909912109375 3010.43896484375 3002.469970703125 2995.091064453125 2987.111083984375 2980.780029296875 2976.31005859375 2973.919921875 2970.091064453125 2966.091064453125 2960.719970703125 2952.839111328125 2947.60009765625 2945.93798828125 2945.260009765625 2943.449951171875 2945.802001953125 2950.791015625 2953.030029296875 2946.81201171875 2948.4189453125 2998.56103515625 3032.950927734375 3050.05908203125 3103.60205078125 3170.85888671875 3232.12890625 3315.97900390625 3296.589111328125 3290.30908203125 3285.8701171875 3285.090087890625 3287.840087890625 3292.591064453125 3298.028076171875 3305.81005859375 3300.56005859375 3332.638916015625 3258.89892578125 3229.39892578125 3215.7890625 3197.860107421875 3177.110107421875 3155.719970703125 3130.489013671875 3131.889892578125 3050.908935546875 3006.791015625
